-0.19135 0.10496 0.010581 -0.45411 -0.89091 0.0085987
-0.22804 0.40144 -0.36374 -0.41276 0.67874 -0.60741
-0.10762 -0.40681 -0.029338 -0.3448 0.14248 0.9278
0.0024862 -0.40449 -0.095375 0.98237 0.17241 0.072256
-0.20964 0.43019 -0.03678 -0.67594 0.70701 -0.20793
-0.15574 -0.090163 -0.11543 -0.78192 0.1857 -0.59507
-0.11339 -0.082292 0.3151 -0.95052 -0.06149 0.30452
-0.15155 -0.18407 -0.13596 -0.48469 0.060638 -0.87258
-0.11904 -0.46541 -0.16812 -0.29671 0.02991 -0.9545
-0.27136 0.31858 0.29325 -0.99845 0.023345 -0.05045
0.29661 0.20391 -0.011819 0.95032 0.1462 -0.27479
-0.017922 0.26998 0.20183 0.23559 0.054074 0.97035
-0.25782 0.3646 0.37109 -0.91631 0.28494 0.28139
-0.060573 0.0048326 0.20264 0.012716 0.97504 -0.22166
-0.1393 -0.33524 -0.058883 -0.83991 -0.5257 0.13489
0.038277 -0.080391 0.24577 0.90094 0.0897 -0.42458
-0.26633 0.35104 0.0006566 -0.94287 0.33232 -0.023573
-0.13225 0.48289 0.056707 -0.43486 0.89225 0.12164
0.051196 -0.21601 0.12522 0.58088 -0.10293 0.80746
0.08695 0.42347 0.025503 0.64265 0.76615 -0.0022668
-0.21498 -0.24367 0.050943 -0.91793 -0.31671 0.23893
-0.073024 0.37062 -0.16686 -0.00431 0.37869 -0.92551
-0.08871 -0.41332 -0.17202 -0.13579 0.096891 -0.98599
0.035014 0.38416 0.15025 0.45819 0.42821 0.77891
-0.17743 0.11033 -0.21926 0.91729 0.1596 -0.36485
-0.017694 -0.21345 -0.14307 0.33157 -0.12507 -0.9351
-0.11863 0.055934 0.066284 -0.57179 0.16634 0.80336
-0.010288 0.067272 0.027317 0.92685 -0.30954 0.21245
0.10112 0.3651 -0.076064 0.77945 0.32728 -0.53417
0.10329 0.37234 0.086224 0.7723 0.36702 0.51852
-0.22916 0.19008 -0.1265 -0.9383 -0.3168 -0.13867
-0.16715 0.09561 -0.13234 0.35875 -0.48174 0.79952
-0.21146 0.47109 0.24127 -0.35292 0.93384 -0.058225
0.095657 -0.14927 0.025967 0.92426 0.36927 0.096898
0.20103 0.19774 -0.056268 -0.27747 -0.3532 -0.89345
0.13185 0.36892 0.053729 0.49437 0.64067 0.5875
-0.20394 0.12834 0.086814 -0.52011 -0.80428 0.28743
-0.17795 -0.1452 -0.11106 -0.62 0.19211 -0.76072
-0.22026 0.25996 0.3649 0.98276 0.082139 -0.16564
0.12051 0.38379 0.04924 0.67976 0.59063 0.43483
0.092398 0.40931 0.066523 0.75618 0.56602 0.32836
-0.13971 -0.074142 0.14824 -0.87689 0.20905 0.43284
0.21839 0.036304 0.038835 0.70852 -0.37531 0.59762
-0.26054 0.22319 0.086942 -0.91731 -0.21028 0.33811
-0.24636 0.31488 0.13459 -0.95918 0.15497 0.23654
-0.2411 0.4462 -0.22531 -0.82398 0.55967 0.088449
0.0014441 0.4568 -0.096145 0.39422 0.68395 -0.61384
-0.22654 0.33396 -0.30141 0.99812 -0.057782 -0.020239
-0.14699 0.47339 0.064555 -0.48554 0.84759 0.2141
-0.22219 0.3685 -0.30308 0.97317 -0.21859 0.071844
0.022301 0.46971 -0.010054 0.48135 0.869 0.11467
-0.22665 0.33217 0.32814 0.99688 -0.062987 -0.047501
-0.1246 -0.027458 -0.21046 -0.86639 0.49468 -0.068237
-0.09193 0.47847 0.10571 -0.19543 0.79639 0.57233
0.10094 0.22746 -0.090755 0.79017 -0.24341 -0.56248
-0.19723 0.44113 -0.036816 -0.63466 0.74775 -0.19514
0.15391 0.37544 0.013196 0.49784 0.86501 0.062603
0.076159 -0.30344 -0.016181 0.64307 -0.71259 -0.28049
-0.058493 -0.054939 0.35511 0.27107 0.05185 0.96116
-0.2388 0.26601 -0.42767 -0.63263 -0.033418 -0.77373
-0.005337 0.0035533 0.26473 0.45099 0.86571 -0.21713
0.094303 -0.1442 0.016649 0.91713 0.3961 0.044376
-0.25057 0.31242 -0.40527 -0.8294 0.20679 -0.51896
-0.071998 -0.2748 -0.14768 0.077767 -0.042028 -0.99609
-0.21576 0.30777 0.43975 0.74551 0.18998 0.63885
-0.015447 -0.074357 -0.11877 0.97566 0.20479 0.078455
0.041923 -0.098917 -0.23667 0.89328 -0.11888 0.4335
-0.043897 -0.18612 0.17038 0.24645 0.0083352 0.96912
-0.13021 -0.11517 0.17644 -0.91049 -0.39631 0.11806
0.19253 0.14985 -0.00077947 -0.99774 0.0576 -0.034602
-0.060703 -0.14608 -0.17605 0.04264 -0.97816 0.20341
-0.011401 -0.068458 -0.32152 0.34985 0.019543 -0.9366
0.20808 0.080047 -0.043091 0.057907 -0.17049 -0.98366
-0.20032 0.13842 -0.3191 0.92123 0.33957 0.1898
0.039958 0.1389 0.11313 0.49951 -0.71833 0.48424
-0.05556 0.13222 -0.1336 0.10057 -0.80548 -0.58403
-0.1468 0.44927 0.11262 -0.38961 0.76959 0.5059
-0.18701 0.35105 -0.20061 0.77903 0.13771 -0.61167
0.04712 -0.31599 0.054193 0.40246 -0.85959 0.31486
0.0075049 -0.1 -0.16919 0.85608 -0.21612 0.46948
-0.046179 0.49421 -0.063212 0.1387 0.93005 -0.34024
-0.19805 0.44332 0.039603 -0.63525 0.76785 0.082868
-0.041809 -0.36051 -0.15558 0.4899 0.19974 -0.84859
0.072562 -0.10484 -0.00015692 0.83393 0.54885 -0.057623
0.25794 0.27376 0.056624 0.69845 0.42993 0.57213
-0.14204 -0.3549 0.13158 -0.96089 0.19782 0.19377
0.038092 -0.056899 0.0020421 0.81452 0.57881 -0.039155
-0.059211 0.35843 -0.17135 0.058932 0.33823 -0.93922
0.096806 0.22445 0.11321 0.79283 -0.25728 0.55248
0.18274 0.097323 -0.036336 -0.63962 0.25839 -0.72396
0.0008408 -0.39618 -0.10612 0.97532 0.18292 -0.12369
0.040003 -0.10746 0.25357 0.8701 -0.24043 -0.43025
-0.15669 -0.31199 0.085419 -0.72606 -0.65333 0.21447
-0.020046 -0.33018 0.14212 0.82805 0.19211 0.52671
-0.22809 0.36491 0.41437 -0.33484 0.54383 0.7695
0.0059243 -0.48078 0.088976 0.91037 -0.075896 -0.40677
0.022279 0.46085 0.092876 0.47744 0.74224 0.47024
0.069561 -0.18378 0.10833 0.73596 0.12716 0.66497
-0.18729 0.046706 -0.31903 0.11605 -0.6409 -0.7588
-0.2571 0.29391 -0.093239 -0.93559 0.079168 -0.34409
-0.082852 0.49669 0.025313 -0.097796 0.99427 -0.043206
0.21597 0.30508 -0.050633 0.40583 0.50269 -0.76328
0.017664 -0.18459 0.1465 0.47306 0.067669 0.87843
0.079135 0.24855 -0.12732 0.76959 -0.1102 -0.62895
-0.048164 -0.4173 0.048942 0.37312 0.10341 -0.922
-0.0093087 0.29814 -0.17879 0.257 0.16159 -0.95281
-0.12412 -0.18955 -0.14869 -0.34825 0.0063324 -0.93738
-0.246 0.24989 -0.18351 -0.9604 -0.12695 0.24804
0.024333 -0.32184 0.066343 0.37659 -0.88042 0.28815
-0.22908 0.081883 -0.31738 -0.91884 -0.3126 -0.24087
-0.21965 0.30298 0.28522 0.94571 0.06644 0.31815
0.021225 -0.14965 -0.27681 0.37238 -0.89457 0.24713
-0.067739 -0.39575 -0.17017 0.092268 0.12436 -0.98794
0.032841 -0.06598 0.32149 0.42137 0.030066 0.90639
0.29082 0.23898 0.0048151 0.94665 0.31844 -0.04961
0.067471 -0.31384 0.021364 0.54343 -0.82755 0.14087
-0.17089 -0.20947 0.14074 -0.59014 -0.10618 0.80029
-0.24274 0.19578 0.10904 -0.86882 -0.35262 0.34757
-0.26259 0.31531 -0.22118 -0.96497 -0.029021 0.26074
0.22433 0.24764 -0.065044 0.1705 0.052281 -0.98397
0.10527 -0.18184 -0.013009 0.96693 0.20241 -0.15516
-0.21401 0.39932 -0.29025 0.94734 -0.31592 0.052432
0.23877 0.17339 0.074466 0.003847 -0.16284 0.98664
-0.16944 0.090013 -0.20877 0.92696 0.15142 -0.34323
0.066662 -0.17439 0.1092 0.72106 0.18268 0.66836
-0.26783 0.25411 0.36047 -0.98868 -0.10811 0.10403
0.18613 0.17728 0.042743 -0.7883 -0.56823 0.23599
0.018903 -0.01089 0.32002 0.47987 0.32507 0.8149
-0.097666 0.14239 0.16468 0.009634 -0.71364 0.70045
-0.22446 0.15989 -0.091725 -0.81373 -0.49876 -0.29845
0.022869 0.104 0.047332 0.43368 -0.87696 0.20704
0.11306 0.26008 -0.082356 0.77851 -0.063819 -0.62437
-0.15788 0.036485 -0.1767 0.96787 -0.16028 0.19377
-0.20923 -0.10574 -0.064533 -0.86568 0.19367 -0.46161
-0.24673 0.41625 -0.31779 -0.79288 0.5319 -0.29735
-0.13026 0.47623 0.084169 -0.44881 0.81725 0.36148
-0.12295 -0.39195 0.057851 -0.6191 0.16656 -0.76744
-0.26593 0.24825 -0.26148 -0.97723 -0.12299 0.1729
-0.013728 -0.10471 -0.13304 0.9302 -0.29941 0.21235
-0.12647 -0.42373 -0.035335 -0.57494 0.19892 0.79365
-0.053214 0.011571 -0.27593 -0.1961 0.97943 -0.047561
-0.085286 0.34716 -0.17508 -0.023038 0.31527 -0.94872
-0.23341 0.45182 0.28416 -0.65703 0.72812 0.19532
0.1585 0.21453 0.072699 -0.079293 -0.56484 0.82138
-0.050151 -0.15287 -0.15208 0.27617 0.070001 -0.95856
-0.10724 -0.14422 -0.15554 -0.40767 -0.4019 -0.81993
-0.13334 -0.5 -0.079363 -0.0018273 -1 0.00034093
-0.21025 0.3495 -0.39669 0.98868 -0.013337 -0.14943
-0.10851 -0.13854 0.18057 -0.48016 -0.84641 0.23028
-0.057328 0.45814 0.13144 0.048577 0.6697 0.74104
0.005273 -0.11222 0.3316 0.3635 -0.084128 0.92779
-0.10207 -0.13453 -0.27267 -0.75307 -0.62991 -0.18998
-0.23057 0.16391 -0.3848 -0.65756 -0.44458 -0.60825
-0.23199 0.17088 0.20134 -0.93976 -0.18668 -0.28638
-0.26143 0.24269 -0.076871 -0.93084 -0.13814 -0.33832
-0.18635 -0.29145 -0.035297 -0.72615 -0.65118 -0.22061
-0.13571 -0.18469 0.16138 -0.40404 0.021581 0.91449
-0.18726 0.022054 0.3113 0.031394 -0.78167 0.62291
0.069797 0.12282 0.003659 0.62137 -0.78273 -0.03526
-0.27039 0.27127 -0.27605 -0.99265 -0.078565 0.092026
0.093422 -0.24025 0.069701 0.86766 -0.20689 0.45206
-0.12678 -0.037966 0.14477 -0.78965 0.60983 0.067499
0.14199 0.2058 -0.046722 0.061275 -0.7696 -0.63558
-0.13372 0.2434 -0.1914 0.098932 -0.062414 -0.99313
-0.13329 -0.1158 0.16331 -0.90775 -0.23071 0.35039
-0.22392 0.26827 -0.43334 0.080825 0.041376 -0.99587
0.0085339 -0.0013703 -0.26064 0.54994 0.7976 0.24778
-0.083119 -0.001742 0.30365 -0.54184 0.82181 0.17619
-0.12672 -0.47783 -0.023694 -0.42879 0.085597 0.89934
-0.11354 0.14858 0.17096 0.069821 -0.66912 0.73987
-0.25092 0.3507 0.091808 -0.8828 0.33892 0.32526
0.038922 -0.043799 0.26997 0.83396 0.39923 -0.38095
0.16545 -0.051914 0.011605 -0.74683 -0.66241 0.058892
-0.22307 0.2682 -0.29228 0.98554 0.070806 -0.15394
-0.069765 -0.34852 0.027069 0.053757 -0.97757 -0.20364
0.073092 -0.22274 -0.087181 0.74464 -0.13017 -0.65464
-0.20351 -0.13061 0.098966 -0.80134 0.15476 0.57784
0.18154 0.064649 0.05748 -0.20708 -0.019582 0.97813
0.21828 0.32808 0.04021 0.56994 0.73571 0.36591
-0.095473 -0.43472 -0.022112 -0.075295 0.12304 0.98954
0.097068 -0.23977 -0.044346 0.89048 -0.1889 -0.41396
0.0048834 -0.0034134 -0.24538 0.57375 0.77448 0.26645
0.21528 0.10215 0.063693 -0.043263 -0.11286 0.99267
-0.23968 0.12096 -0.24581 -0.96447 -0.21372 0.15528
-0.050522 -0.49867 0.17446 0.054719 -0.97144 0.23087
-0.20423 0.39286 -0.35684 0.98126 -0.1838 0.057855
-0.020498 -0.023353 -0.06978 0.62186 0.47507 -0.62258
-0.2465 0.20632 -0.20828 -0.94576 -0.16145 0.28191
-0.17918 -0.27027 0.10742 -0.71616 -0.45758 0.527
-0.25305 0.16412 0.018407 -0.8933 -0.44801 0.036087
-0.026055 0.011001 -0.30931 0.10986 0.90936 -0.40124
-0.24381 0.35286 -0.090175 -0.88033 0.35282 -0.31707
-0.20406 -0.15236 -0.085412 -0.81457 0.10212 -0.571
-0.25796 0.36986 -0.012672 -0.90609 0.41842 -0.062694
0.033197 -0.016285 0.29545 0.71823 0.63895 -0.2755
-0.084396 0.11563 0.12784 -0.015297 -0.8367 0.54745
-0.093642 0.14516 -0.14978 0.0015549 -0.6862 -0.72741
-0.012978 -0.44774 0.16645 0.70396 0.092782 0.70415
-0.27507 0.31727 -0.0063976 -0.98388 0.171 -0.052356
-0.00076392 0.32703 -0.17037 0.28303 0.2437 -0.92763
0.040559 0.10948 -0.01869 0.39896 -0.90669 -0.13693
-0.11797 0.48555 0.074968 -0.3771 0.8793 0.29092
-0.21675 -0.1735 -0.063359 -0.92623 -0.040638 -0.37477
-0.023151 0.018637 0.06019 0.7755 0.33992 0.53204
-0.033056 0.49183 0.024306 0.23259 0.964 -0.12887
0.013668 0.095955 0.00234 0.47526 -0.87903 -0.037821
-0.1126 -0.28507 -0.13721 -0.47301 -0.06691 -0.87852
-0.16861 0.04128 -0.25656 0.96917 0.23687 -0.067818
-0.12548 0.11625 0.12268 -0.0037154 -0.90956 0.41555
0.19447 0.27881 -0.065287 0.096708 0.16986 -0.98071
-0.1363 -0.051219 0.13648 -0.82146 0.41549 0.3906
0.045927 -0.086418 0.067402 0.73058 0.55597 0.39642
0.15966 0.23509 0.081629 -0.039737 -0.24101 0.96971
-0.25307 0.24841 -0.40489 -0.9052 -0.15659 -0.3951
-0.057376 0.0093151 0.30734 -0.2861 0.95338 0.096014
0.0016203 -0.12331 -0.12047 0.52147 0.33527 -0.78464
-0.039731 0.48439 0.09838 0.18206 0.83332 0.52194
0.0072121 -0.014343 -0.012356 0.83198 0.52287 -0.18551
-0.12957 -0.019516 -0.092616 -0.4701 0.58843 -0.65785
-0.02199 -0.15074 -0.22605 0.19613 -0.96131 0.19342
-0.17463 0.42444 -0.14958 0.82598 0.50841 -0.24348
-0.13493 -0.056894 -0.1565 -0.98388 0.17824 0.014367
-0.20407 0.13691 -0.095149 -0.65608 -0.74597 -0.1144
-0.18105 0.10947 -0.22935 0.92391 0.19094 -0.33156
-0.13414 -0.043757 -0.11452 -0.747 0.51488 -0.42058
-0.23075 0.18156 -0.10715 -0.87344 -0.39622 -0.28303
-0.21378 0.14461 -0.13824 -0.9369 -0.29108 0.19363
-0.181 0.078895 -0.26971 0.94425 0.32511 -0.051989
0.11274 0.39989 -0.012594 0.65849 0.73495 -0.16201
0.29627 0.15598 0.032016 0.94198 -0.10758 0.31797
0.00086473 0.48349 0.049105 0.40842 0.91009 -0.07014
-0.25991 0.17899 0.019735 -0.92282 -0.38305 0.041056
-0.12991 -0.49073 0.17991 -0.34276 -0.36664 0.86492
-0.11614 -0.34333 0.0054632 -0.24851 -0.96862 0.0037936
0.2656 0.1289 0.059849 0.47589 -0.28944 0.83052
0.089901 0.38947 0.094034 0.7598 0.41874 0.49736
-0.1529 0.20784 -0.19069 0.40583 -0.17632 -0.89678
9.1711e-05 -0.020242 0.21674 0.71803 0.58896 -0.37089
-0.1639 0.30777 0.21063 0.44707 0.21536 0.86819
-0.19153 0.45614 -0.22028 0.9882 -0.030012 -0.15022
-0.056742 0.00036132 0.18669 0.1187 0.95073 -0.2864
-0.21211 0.17771 0.30045 0.96899 0.18103 0.16818
-0.0051805 -0.32826 -0.086137 0.89728 -0.37612 -0.23113
-0.026797 -0.4878 -0.037668 0.50608 -0.29667 0.80986
-0.20981 0.46388 -0.27163 -0.21352 0.92241 -0.32182
-0.020253 -0.059053 -0.10713 0.92811 0.3705 -0.036731
-0.18452 -0.16417 0.12723 -0.66738 0.13799 0.73182
-0.055952 0.49867 0.04387 0.10002 0.99036 -0.095781
-0.028112 -0.35807 -0.14424 0.66969 0.20524 -0.71372
-0.22132 0.30477 -0.42646 0.28131 0.27548 -0.91922
0.071876 0.34345 0.14024 0.67692 0.27045 0.68457
-0.042013 0.12349 0.13509 0.15068 -0.82357 0.54683
-0.23154 0.16549 -0.18528 -0.93909 -0.18751 0.288
0.011383 -0.093356 -0.094408 0.56719 0.50521 -0.65043
-0.0067047 0.48298 -0.062292 0.38409 0.8614 -0.33235
-0.15687 -0.48577 -0.055386 -0.91562 -0.024826 0.40128
-0.26698 0.34353 -0.02806 -0.95149 0.28521 -0.11539
-0.069275 -0.41511 0.043187 0.15971 0.10262 -0.98182
-0.16726 0.034451 0.27619 0.98295 0.16978 0.070629
0.26824 0.27324 -0.022657 0.79964 0.48369 -0.35582
-0.037936 -0.47409 0.18399 0.37408 -0.091843 0.92284
-0.10196 -0.13746 -0.26 -0.69685 -0.69997 -0.15634
0.078129 0.13338 -0.016836 0.68909 -0.70278 -0.17679
-0.17049 0.15396 -0.19722 0.82374 -0.0012375 -0.56696
0.010064 0.0045361 -0.28907 0.46339 0.88549 0.034398
0.1018 -0.25913 0.038181 0.90517 -0.28491 0.31541
-0.014253 -0.05774 0.10886 0.71529 0.48621 0.50195
-0.098255 -0.011887 -0.27848 -0.69991 0.67937 -0.22041
-0.21719 0.15949 -0.12071 -0.92057 -0.38486 -0.066557
0.00066274 -0.044104 0.18989 0.82503 0.36982 -0.42726
-0.10401 -0.0059907 0.21701 -0.54675 0.83495 -0.062691
-0.2442 0.30296 -0.41753 -0.70949 0.21355 -0.67159
-0.13738 -0.34874 0.087526 -0.96342 -0.058526 -0.26152
-0.033091 -0.25341 -0.14021 0.34656 -0.19809 -0.91688
-0.14746 -0.045325 -0.098289 -0.61233 0.46456 -0.63972
-0.17048 0.10077 -0.030392 -0.42109 -0.8727 -0.24714
0.29712 0.14555 -0.0042796 0.95879 -0.21469 -0.18608
0.0020503 0.087131 -0.0056972 0.71906 -0.686 -0.11116
-0.20996 0.41344 0.14534 -0.63405 0.6691 -0.38767
-0.20639 0.084014 0.18193 -0.88235 -0.25704 -0.3942
-0.10307 -0.03839 0.32878 -0.89621 0.31797 0.30937
-0.21919 0.24518 0.29895 0.96817 0.07041 0.24018
-0.19327 -0.28614 -0.027538 -0.76339 -0.61016 -0.21198
0.066929 0.40075 -0.096633 0.64904 0.4764 -0.59312
-0.27011 0.28948 -0.26416 -0.99151 -0.051583 0.11937
-0.16746 -0.30721 0.063886 -0.65918 -0.73069 0.17767
-0.23368 0.16155 0.21157 -0.93898 -0.18442 -0.29036
-0.17948 0.098644 -0.23189 0.93179 0.20923 -0.29663
-0.0069716 -0.31174 0.12268 0.74249 -0.27916 0.60891
-0.22031 -0.16858 -0.054983 -0.94674 -0.032148 -0.3204
-0.20758 0.4173 -0.26223 0.95393 -0.28709 -0.087128
-0.09037 -0.013568 -0.30409 -0.70157 0.66883 -0.24588
-0.048513 -0.5 0.1392 2.344e-17 -1 2.344e-17
-0.10645 -0.244 0.16426 -0.26506 -0.18291 0.94672
-0.20271 0.11055 0.013655 -0.46521 -0.88485 0.025071
-0.17977 0.039574 0.17741 -0.2666 -0.47789 -0.83698
0.29677 0.19 -0.015868 0.94011 0.066053 -0.33442
-0.20058 0.23481 0.25691 0.85543 0.039645 0.51641
-0.072861 0.008644 0.25296 -0.26813 0.96338 0.00034672
-0.21412 0.28117 -0.42588 0.85565 0.094333 -0.50889
-0.051765 0.00042787 -0.079087 0.45195 0.51261 -0.73005
0.024962 -0.33195 -0.0030844 0.25061 -0.96401 -0.088737
0.23833 0.11316 -0.046621 0.1633 -0.22705 -0.96009
-0.26668 0.3725 0.28294 -0.98858 0.14983 -0.016172
-0.14665 -0.38702 -0.086513 -0.95947 0.18859 0.20939
0.036606 -0.19289 0.13583 0.51491 0.039171 0.85635
0.035103 0.11444 -0.048831 0.40904 -0.8671 -0.28429
-0.19051 0.11953 -0.11602 -0.49076 -0.65672 0.57261
0.016008 0.23423 -0.17211 0.36455 -0.12922 -0.92218
-0.013289 -0.092362 0.14348 0.99427 0.0078526 -0.10659
-0.067906 -0.14455 0.18493 0.04227 -0.9775 -0.20664
-0.00031038 -0.47025 -0.060375 0.82234 0.079118 0.56347
-0.1158 -0.13223 0.2269 -0.71391 -0.69716 0.065593
0.093897 0.35649 -0.091508 0.77478 0.27635 -0.56863
-0.14883 -0.48427 0.16901 -0.69992 -0.10079 0.70708
-0.15596 0.094752 0.050865 -0.45402 -0.84273 0.28925
0.026941 0.17653 -0.14325 0.45984 -0.4984 -0.73495
-0.26967 0.26592 0.077344 -0.96109 -0.044656 0.27259
-0.13547 -0.077916 0.22991 -0.99126 -0.040808 0.12545
-0.0099496 -0.10686 -0.14327 0.79839 -0.38253 0.46501
-0.017505 0.19012 -0.17097 0.25696 -0.39654 -0.88132
-0.11512 0.20671 0.20218 0.0080499 -0.25967 0.96566
0.0038944 0.37044 -0.15338 0.30665 0.37432 -0.87513
-0.19152 0.44935 -0.0099105 -0.60014 0.79894 -0.039107
0.14771 0.31869 -0.05711 0.14249 0.30245 -0.94246
-0.070921 -0.5 -0.13784 0.001786 -0.99957 -0.029375
-0.25632 0.29423 0.22101 -0.95762 -0.080431 -0.27659
-0.22227 0.37104 0.31342 0.97603 -0.21572 -0.028757
-0.039502 0.29439 -0.18567 0.1329 0.15639 -0.97871
-0.14951 -0.38845 0.12176 -0.9798 0.19892 -0.020403
0.0056821 -0.025189 0.055599 0.75347 0.54031 0.37463
-0.25727 0.33432 -0.20104 -0.95673 -0.0048221 0.29093
0.054931 0.14832 -0.091421 0.60904 -0.63662 -0.47305
0.050339 -0.061223 -0.29367 0.62803 0.095948 -0.77225
0.026535 -0.0069001 -0.28841 0.6666 0.7446 0.034759
0.068158 -0.13099 -0.065374 0.76986 0.43332 -0.46856
-0.22885 0.089707 0.34358 -0.89078 -0.33294 0.30929
-0.24615 0.18791 -0.21827 -0.94702 -0.16764 0.27395
-0.19797 0.39374 0.23403 0.90779 -0.062446 0.41476
-0.09621 -0.14185 0.28231 -0.63276 -0.76219 0.13669
-0.13324 -0.046544 -0.19895 -0.96575 0.25397 -0.053222
-0.015287 -0.41394 0.16368 0.72072 0.13689 0.67957
-0.091803 -0.42214 -0.023746 -0.069239 0.12213 0.9901
0.00083095 -0.033885 -0.18275 0.80444 0.42373 0.41633
0.12014 0.34255 0.079881 0.68677 0.27259 0.67382
-0.12375 -0.36568 -0.045224 -0.7554 -0.0024046 0.65527
-0.078917 0.30215 0.20446 0.01006 0.17975 0.98366
-0.16691 -0.082168 -0.10027 -0.61553 0.28427 -0.73506
-0.25505 0.37812 -0.20019 -0.95061 0.10509 0.29205
-0.16082 0.041973 0.22366 0.97658 0.10883 0.18558
-0.16643 -0.071481 -0.096355 -0.58849 0.31776 -0.74345
-0.27113 0.29945 0.28658 -0.99564 -0.019096 -0.091298
0.19319 0.15245 0.029143 -0.99434 -0.027057 0.10274
-0.068326 -0.34708 0.011991 0.04769 -0.99868 -0.019144
-0.26612 0.31154 -0.064399 -0.9365 0.14329 -0.32006
-0.21141 0.25864 0.40836 0.97928 0.093326 -0.17975
-0.16133 0.22451 0.21548 0.48008 -0.095085 0.87205
0.1005 -0.27024 0.030514 0.87856 -0.36896 0.30332
-0.16634 0.063629 0.23094 0.94932 0.18183 0.25638
-0.05671 -0.43622 0.18943 0.20615 0.058296 0.97678
-0.017119 -0.36477 -0.13409 0.78536 0.20853 -0.58286
-0.088168 -0.5 -0.062619 0.00021973 -0.99999 0.0032766
0.012544 -0.0038524 0.27963 0.58795 0.76526 -0.2621
0.001854 -0.33263 -0.038076 0.36281 -0.92133 -0.13972
-0.20279 0.29263 0.25265 0.84415 0.093969 0.52781
-0.2471 0.22898 0.21652 -0.95209 -0.14457 -0.26949
-0.12904 -0.038879 -0.16308 -0.88978 0.45246 0.059747
0.20749 0.34291 0.0037238 0.57222 0.8174 -0.066504
-0.22388 0.46348 0.26509 -0.5581 0.82065 0.1227
-0.20212 -0.038826 0.039169 -0.88196 0.43236 0.18768
-0.0085256 -0.3658 0.13671 0.90929 0.20339 0.36307
-0.048454 0.067165 -0.057495 0.39824 -0.21254 -0.89232
0.033116 0.33537 0.17174 0.42307 0.26633 0.86607
0.055982 0.27696 0.16892 0.60596 0.04487 0.79423
-0.20673 0.43201 -0.33221 0.10706 0.8164 -0.56748
-0.015193 -0.35342 0.08041 0.8853 -0.14398 -0.44217
-0.12618 -0.32997 -0.13491 -0.7204 0.22483 -0.65611
-0.082835 0.081382 0.085555 -0.091209 -0.52309 0.84738
-0.12495 -0.081307 -0.26038 -0.96136 -0.07374 -0.26524
-0.2129 0.18626 -0.27875 0.96481 0.15259 -0.21416
-0.22711 0.31736 0.32305 0.99977 0.00061822 0.021547
-0.0090655 -0.34717 0.096728 0.98256 -0.079467 -0.16813
0.13195 0.35404 0.06512 0.45221 0.43546 0.77839
-0.2566 0.18175 -0.30406 -0.97413 -0.22372 -0.031982
-0.2546 0.18725 -0.051943 -0.89517 -0.36046 -0.26219
-0.01284 0.049121 -0.0072066 0.97909 -0.047628 -0.19779
0.28833 0.15908 -0.030814 0.81641 -0.11748 -0.5654
0.086266 0.34463 -0.10678 0.75478 0.23881 -0.61096
-0.098179 -0.095083 -0.33677 -0.80616 -0.14194 -0.57442
0.20139 -0.056535 0.036422 -0.055782 -0.54443 0.83695
-0.05842 0.0064957 0.32679 -0.3445 0.91773 0.19772
0.109 -0.24704 0.00046772 0.9842 -0.15589 -0.083925
-0.084613 -0.5 -0.081555 -0.00059401 -1 0.00012941
-0.27437 0.2348 -0.012941 -0.98688 -0.14315 -0.074696
-0.21087 0.22913 -0.25982 0.92077 0.062792 -0.38502
0.20603 0.03978 -0.032323 0.4219 -0.30355 -0.85432
0.13825 0.37154 -0.027461 0.43964 0.73562 -0.51534
-0.2041 0.022579 -0.28592 -0.53271 -0.73616 -0.41749
-0.058328 -0.44872 -0.17258 0.16546 0.036135 -0.98555
0.0046715 0.091782 0.033137 0.61066 -0.77504 0.16251
0.00088849 -0.13533 -0.20315 0.51617 -0.79316 0.32321
-0.23453 0.18022 -0.39241 -0.68858 -0.43035 -0.58365
-0.069684 -0.42679 -0.024049 0.15761 0.10101 0.98232
0.087935 -0.18578 -0.06497 0.86306 0.15037 -0.48219
-0.21544 -0.26 0.002117 -0.91327 -0.40404 -0.051863
0.0058071 -0.49671 -0.091848 0.63955 -0.76524 0.073444
-0.22526 0.10805 -0.34857 -0.75956 -0.40992 -0.50501
0.15005 0.19264 0.020959 -0.010136 -0.99721 0.073893
-0.15925 -0.26651 -0.1125 -0.57745 -0.35299 -0.73618
-0.22968 0.094575 -0.22558 -0.94615 -0.22286 0.23481
0.14706 0.047757 0.011599 -0.93472 0.355 0.016703
-0.19449 0.11577 0.0641 -0.42261 -0.87171 0.24804
-0.20682 0.22162 0.40584 0.97213 0.16818 -0.16334
-0.00098129 -0.39478 0.10237 0.95543 0.17392 -0.23853
-0.15789 -0.32359 0.000252 -0.56815 -0.82106 -0.05538
-0.12383 -0.33186 0.15547 -0.68585 0.2424 0.68619
-0.25912 0.32085 0.095111 -0.92169 0.19935 0.33279
-0.23025 0.41673 -0.34291 -0.45828 0.72013 -0.52095
-0.23027 -0.1306 0.0028321 -0.99229 0.11868 -0.035577
-0.0080596 0.21526 0.19504 0.28332 -0.23504 0.92978
-0.13447 -0.35778 0.15282 -0.79507 0.23193 0.56042
-0.25551 0.25938 -0.40263 -0.92895 -0.089557 -0.35921
-0.091493 -0.12189 -0.33302 -0.76323 -0.40014 -0.50731
-0.0044945 -0.33359 -0.056733 0.51303 -0.85282 -0.097483
-0.077075 -0.27741 0.16578 -0.021165 -0.0076684 0.99975
-0.12442 0.30604 -0.18535 0.017749 0.2112 -0.97728
-0.26864 0.26823 0.36543 -0.99022 -0.065179 0.12338
0.079595 -0.12946 -0.039426 0.83951 0.46209 -0.28582
0.18617 0.35061 0.038122 0.4552 0.79693 0.39711
-0.070302 0.0092957 -0.23456 -0.23834 0.97113 0.010251
-0.028155 0.08321 0.071354 0.49046 -0.57046 0.65881
0.0090934 -0.13297 0.22852 0.56572 -0.75249 -0.33721
0.0071166 -0.45215 0.097622 0.94443 0.11439 -0.30817
-0.0722 0.0034368 -0.29139 -0.43445 0.88871 -0.14649
-0.16269 -0.49047 0.090681 -0.95089 -0.19634 -0.23931
-0.16339 0.16273 -0.18874 0.74552 -0.089436 -0.66046
-0.13284 0.40945 -0.1401 -0.0896 0.57324 -0.81448
-0.096186 0.17458 -0.17158 -0.00032607 -0.48053 -0.87698
-0.056077 -0.39817 -0.030117 0.30576 0.079241 0.94881
-0.2076 0.09593 0.17666 -0.89386 -0.25095 -0.37153
0.015005 -0.12756 0.32572 0.38564 -0.13419 0.91284
-0.12895 -0.035251 -0.20375 -0.91578 0.39803 -0.053986
-0.13232 0.47365 -0.069466 -0.45772 0.80424 -0.37907
-0.23811 0.18953 -0.19196 -0.94268 -0.17692 0.28292
0.1062 -0.2416 0.037046 0.95331 -0.1503 0.26194
-0.21598 0.39884 -0.10165 -0.78232 0.62073 -0.051727
-0.27075 0.21463 -0.010268 -0.9732 -0.21753 -0.074628
-0.24385 0.28756 0.16994 -0.99828 -0.025111 -0.052968
-0.065635 0.0008028 -0.16865 -0.0087347 0.96162 0.27426
0.082501 -0.19166 -0.075301 0.83673 0.10938 -0.53659
-0.2211 -0.08863 -0.013466 -0.96105 0.24397 -0.12988
-0.21667 0.43783 0.33877 -0.28238 0.82365 0.49179
-0.21366 0.12934 -0.3731 -0.30754 -0.52094 -0.79627
-0.20945 0.36384 -0.3695 0.96136 -0.21979 0.16575
-0.20921 0.046098 0.21488 -0.90986 -0.27562 -0.31015
-0.10622 0.069021 0.073717 -0.41329 -0.22662 0.88195
0.045195 0.38174 0.14517 0.50025 0.41535 0.75976
0.20041 0.34194 -0.019332 0.5101 0.78285 -0.35628
-0.24412 0.18354 0.23166 -0.94457 -0.16854 -0.28174
-0.068647 0.34664 0.19337 0.026374 0.30666 0.95145
-0.25453 0.41418 -0.22496 -0.94941 0.27274 0.15569
-0.20836 -0.046705 0.019148 -0.91691 0.39318 0.068512
-0.24633 0.32076 0.42531 -0.75023 0.26826 0.6043
-0.21803 0.30859 0.38718 0.98075 -0.027194 -0.19337
-0.12876 -0.04187 -0.2273 -0.93592 0.30891 -0.1692
-0.20448 0.4116 -0.31953 0.93364 -0.32129 0.15839
-0.0014383 -0.43299 0.14913 0.85884 0.12437 0.49691
-0.24239 0.33546 0.42224 -0.67068 0.36016 0.64844
-0.0038404 -0.43237 -0.062539 0.81859 0.13201 0.559
-0.10107 0.38575 -0.15816 -0.092305 0.44437 -0.89107
0.097464 -0.22608 -0.048088 0.89867 -0.11117 -0.4243
-0.18762 0.017223 -0.28684 -0.0089364 -0.81497 -0.57943
-0.24066 0.1409 0.36118 -0.90783 -0.31196 0.28022
0.0086057 0.41566 0.14437 0.36296 0.52217 0.77175
-0.019637 0.10546 0.095118 0.28679 -0.84155 0.45777
-0.16103 0.45085 -0.079213 -0.46655 0.76978 -0.43563
-0.10344 0.066156 -0.056734 -0.38899 -0.13436 -0.91139
-0.16564 -0.47893 0.10621 -0.99203 0.059635 -0.11101
-0.18268 0.014207 0.29962 0.1435 -0.81715 0.55828
-0.22576 0.13812 0.20169 -0.93406 -0.19197 -0.30113
0.10498 0.31629 0.10709 0.80058 0.13965 0.58273
-0.27394 0.31129 -0.028613 -0.98201 0.13104 -0.13593
-0.24064 0.32655 -0.41117 -0.61898 0.34617 -0.705
-0.012646 -0.12936 0.1489 0.45077 0.22246 0.86448
0.018345 -0.10755 -0.19322 0.83504 -0.32399 0.44468
0.10949 -0.20051 0.00026149 0.99029 0.12483 -0.061105
-0.12328 0.25304 -0.191 0.01919 -0.013825 -0.99972
-0.26434 0.22208 0.29513 -0.98123 -0.16357 -0.1021
-0.024369 -0.5 -0.12916 0.018554 -0.99941 -0.028867
-0.021031 -0.05186 0.11399 0.77631 0.49046 0.39597
-0.14486 -0.38601 -0.12969 -0.90326 0.2171 -0.37012
0.14767 0.21232 0.070304 -0.00074132 -0.63506 0.77246
-0.2064 0.32561 0.25339 0.87076 0.072826 0.48629
-0.21597 0.37377 0.34825 0.93605 -0.2796 -0.21362
0.19113 0.16459 0.032454 -0.91784 -0.36791 0.14903
-0.075743 0.14533 -0.14991 0.034518 -0.69507 -0.71811
-0.086936 0.49738 -0.049445 -0.17081 0.97101 -0.16721
-0.21497 0.25498 -0.37174 0.97722 0.095443 0.18955
-0.25289 0.30345 0.20849 -0.96074 -0.053518 -0.27224
0.16172 0.010378 0.049143 -0.30887 -0.15066 0.93909
0.039049 -0.12653 -0.25339 0.73434 -0.55231 0.39458
0.00036528 -0.032056 0.20136 0.80016 0.4336 -0.41442
-0.11255 -0.014548 0.24913 -0.73685 0.66332 0.13058
-0.1595 -0.46963 -0.067041 -0.9227 0.1784 0.34176
0.20904 -0.049045 0.04049 0.014478 -0.30836 0.95116
-0.26193 0.34558 0.37336 -0.94755 0.20711 0.24341
-0.24066 0.36054 -0.15119 -0.95532 0.1249 0.26787
-0.15498 -0.1017 0.13436 -0.73004 0.14964 0.66682
-0.21808 0.091949 0.36266 -0.62361 -0.46619 0.62752
-0.2132 0.37287 0.36052 0.93773 -0.27141 -0.21678
0.023385 0.2071 0.17947 0.42678 -0.32294 0.84473
-0.2289 0.45044 0.29901 -0.56552 0.77505 0.28193
-0.0078109 -0.0082407 -0.20734 0.59022 0.74436 0.31235
-0.20165 0.053568 0.34147 -0.18479 -0.6257 0.75786
-0.072307 -0.15351 -0.28249 -0.37409 -0.92677 -0.033945
-0.0083164 -0.46214 0.16333 0.7396 0.073781 0.66899
-0.23358 0.19861 -0.11823 -0.9153 -0.31423 -0.25194
-0.17541 0.11163 -0.059822 -0.3634 -0.88585 -0.28845
0.087483 -0.13427 -0.018585 0.88682 0.43279 -0.16203
-0.22373 0.32829 0.43597 0.031949 0.39255 0.91918
0.26594 0.22746 0.068099 0.58584 0.15657 0.79516
0.24058 0.097149 0.058964 0.33115 -0.3328 0.88294
-0.22846 -0.19388 -0.019118 -0.97371 -0.10682 -0.20118
0.067284 0.20634 -0.12668 0.71777 -0.32631 -0.61509
0.14089 0.19343 0.033312 0.13947 -0.97645 0.16462
-0.12333 -0.44111 0.047087 -0.48275 0.19516 -0.85373
-0.1251 -0.045308 -0.24779 -0.93719 0.25678 -0.23608
-0.18913 0.10743 0.2763 0.94155 0.27442 0.19539
0.055039 0.44211 0.082284 0.5953 0.70881 0.37843
-0.20768 -0.1838 -0.081328 -0.87967 -0.031817 -0.47451
-0.15053 -0.49647 -0.049507 -0.62039 -0.69526 0.36295
-0.25983 0.18881 -0.033059 -0.91881 -0.35112 -0.18026
0.051011 -0.087817 -0.29408 0.59599 -0.0076638 -0.80295
-0.22462 -0.23389 0.014958 -0.97398 -0.22112 0.049587
0.28557 0.21464 -0.032645 0.83755 0.15034 -0.52526
-0.12545 -0.072388 0.27729 -0.96346 0.0035125 0.26782
-0.23359 0.2888 0.44649 -0.4101 0.17215 0.89564
-0.15973 -0.2941 -0.092247 -0.70704 -0.51404 -0.48566
-0.19024 0.29256 0.23534 0.74938 0.11822 0.6515
-0.25741 0.3863 0.34801 -0.92378 0.31882 0.2121
-0.21069 0.037595 0.31874 -0.60783 -0.64326 0.46557
0.041439 -0.13299 0.31062 0.60213 -0.41857 0.67989
-0.21656 0.041396 -0.2956 -0.78733 -0.53595 -0.30474
0.12095 0.18377 -0.013194 0.63907 -0.75351 -0.1543
-0.13628 -0.055086 -0.12457 -0.89546 0.37234 -0.24395
-0.24746 0.33521 0.18727 -0.96339 0.019663 -0.26739
-0.26808 0.27916 -0.25544 -0.98566 -0.075675 0.15084
-0.25965 0.19421 0.31004 -0.97717 -0.21226 -0.0096205
-0.21885 0.039964 -0.24734 -0.94025 -0.32349 0.10624
-0.23154 0.074793 -0.2825 -0.96231 -0.26955 -0.036166
0.050693 0.26876 0.17312 0.58015 0.015587 0.81436
0.0038385 -0.12697 0.33033 0.36863 -0.1248 0.92116
-0.0056186 0.34368 0.18433 0.26888 0.2926 0.91765
-0.1363 -0.31642 -0.1151 -0.90466 -0.012734 -0.42593
-0.057104 -0.011375 0.34796 0.16634 0.32289 0.9317
-0.21484 0.18389 -0.29297 0.97892 0.18021 -0.096083
-0.035429 0.023081 -0.05453 0.64578 0.32322 -0.69174
-0.01595 0.17065 0.17762 0.26516 -0.52695 0.80747
0.058883 0.29866 -0.14646 0.60878 0.12338 -0.78369
-0.25254 0.22471 -0.21914 -0.95162 -0.14333 0.2718
-0.0056379 -0.15222 0.15144 0.42201 0.20695 0.88265
-0.24564 0.20619 0.41262 -0.855 -0.32298 0.40578
-0.035489 -0.34622 -0.026924 0.35415 -0.89401 0.27445
-0.12223 -0.091769 0.28427 -0.94872 -0.16146 0.27179
-0.11978 -0.12913 0.19946 -0.73707 -0.67575 0.0088613
-0.062076 0.092617 -0.07665 0.10233 -0.72578 -0.68028
-0.18059 0.43293 0.17991 0.92028 0.3856 0.066292
-0.081019 -0.45988 0.03685 0.06917 0.085128 -0.99397
-0.24199 0.36683 0.097076 -0.85836 0.40249 0.31817
-0.27458 0.23168 0.014627 -0.98533 -0.16932 0.021461
-0.13099 -0.11161 -0.172 -0.93147 -0.36218 -0.034528
-0.19173 0.1356 0.36514 0.91645 0.33912 -0.21238
-0.055983 -0.059056 -0.33691 0.28396 0.042003 -0.95792
0.0058235 -0.4429 -0.11836 0.94622 0.12343 -0.29905
0.067376 0.29355 0.1578 0.67211 0.089141 0.73506
-0.17262 0.055449 -0.31304 0.9874 0.01627 -0.1574
-0.26238 0.32847 -0.36708 -0.95204 0.16864 -0.2553
-0.10795 -0.4418 0.18785 -0.25613 0.072523 0.96392
0.066254 0.43077 0.082951 0.66283 0.63744 0.39283
-0.10478 -0.39201 -0.16497 -0.31758 0.14746 -0.93669
-0.015322 0.48331 0.087016 0.32464 0.85523 0.40398
-0.013788 -0.1723 -0.1413 0.37664 0.13104 -0.91704
0.15085 0.22416 0.077432 -0.01972 -0.40602 0.91365
-0.13903 -0.49676 -0.1534 -0.39483 -0.70563 -0.58838
-0.23731 0.44602 0.29127 -0.70008 0.68353 0.20659
-0.17225 0.42872 -0.11501 -0.28104 0.92021 -0.27244
-0.19468 0.44638 -0.021128 -0.62144 0.77987 -0.074954
-0.19764 -0.19368 0.1152 -0.80618 -0.022232 0.59125
-0.18779 0.098212 0.2856 0.94457 0.30573 0.11965
0.031311 0.22873 -0.16381 0.47234 -0.1913 -0.86041
0.25355 0.093994 -0.032039 0.56677 -0.45994 -0.68354
-0.022931 0.036272 -0.034369 0.84911 0.14141 -0.50893
-0.26678 0.28961 0.26024 -0.97703 -0.063738 -0.20333
0.1025 0.20853 -0.077592 0.77076 -0.35406 -0.52968
-0.051536 0.49821 -0.026486 0.11554 0.98809 0.10164
-0.25015 0.1839 -0.35992 -0.93111 -0.28344 -0.22956
-0.26571 0.37954 -0.26915 -0.98404 0.17775 -0.0088889
0.1312 0.29593 0.083611 0.35485 0.14321 0.92389
-0.099778 -0.47043 -0.017927 -0.11235 0.10221 0.9884
-0.22103 -0.13569 -0.048452 -0.93699 0.10483 -0.33326
-0.13556 -0.054647 -0.18993 -0.98941 0.14184 -0.030689
0.075109 0.14825 0.076267 0.70079 -0.60765 0.3737
-0.19853 0.24408 -0.2351 0.83296 0.043082 -0.55165
-0.1191 -0.26756 -0.13686 -0.42096 -0.19138 -0.88666
-0.09701 -0.49656 -0.022486 0.012564 -0.77713 0.62921
0.0062954 -0.095085 0.18274 0.87128 -0.1355 -0.47171
-0.23903 0.14701 -0.029232 -0.81256 -0.55205 -0.18706
0.015379 0.47474 -0.019059 0.44013 0.88776 0.13477
0.24184 0.13764 -0.050977 0.084196 -0.17684 -0.98063
-0.0053709 0.011706 -0.0078983 0.90804 0.38174 -0.17245
-0.21701 0.21606 -0.28128 0.96953 0.095241 -0.22568
0.00041075 -0.25294 0.14357 0.41191 -0.29521 0.86208
0.014648 -0.3317 0.040013 0.27232 -0.94761 0.16697
-0.076644 0.298 -0.18754 0.011985 0.16577 -0.98609
-0.12097 -0.1019 -0.2632 -0.9332 -0.25089 -0.25727
-0.11941 -0.42941 0.047899 -0.43637 0.18146 -0.88128
0.21522 -0.069164 0.0036961 0.049677 -0.99511 -0.08532
-0.10678 0.41013 0.16154 -0.11845 0.51827 0.84698
-0.24924 0.38197 0.050166 -0.85753 0.48921 0.1591
-0.25156 0.18901 0.080888 -0.87692 -0.35507 0.32394
-0.13561 -0.49717 0.1724 -0.29768 -0.78108 0.54891
0.0023798 -0.065053 -0.079575 0.59529 0.49955 -0.62935
0.28035 0.10421 0.0066512 0.84435 -0.53477 -0.033052
-0.23606 0.44913 0.23023 -0.77662 0.59662 -0.20228
-0.054832 -0.14947 0.21286 0.060361 -0.98308 -0.17296
-0.069923 -0.38569 -0.027894 0.14739 0.049179 0.98786
-0.11634 -0.44684 0.042216 -0.3308 0.16794 -0.92864
-0.052025 0.14907 0.16887 0.10321 -0.67117 0.73409
-0.24975 0.20546 -0.21942 -0.94987 -0.16233 0.26721
0.083156 -0.22678 -0.07328 0.83458 -0.11785 -0.53814
0.090848 -0.157 0.059115 0.89612 0.31415 0.3135
-0.24367 0.28698 -0.14794 -0.99987 -0.015751 -0.0038378
-0.20302 -0.039154 -0.017055 -0.88743 0.43217 -0.16027
-0.10686 -0.030227 0.30858 -0.86287 0.42294 0.27672
-0.25594 0.19131 0.3581 -0.9607 -0.24566 0.12929
-0.1809 0.12012 -0.079532 -0.35073 -0.90296 -0.24831
-0.079486 -0.34777 0.01799 -0.0098937 -0.99777 -0.065937
-0.22513 0.34275 0.30313 0.99094 -0.059518 0.12039
-0.15982 0.45618 -0.070303 -0.50384 0.76967 -0.39212
-0.11778 -0.46724 0.18612 -0.2865 0.013315 0.95799
-0.24075 0.24651 -0.14072 -0.9801 -0.1485 -0.13176
-0.16622 0.02131 0.019383 -0.80586 0.58268 0.10524
-0.18533 -0.22588 0.12454 -0.70591 -0.21005 0.67644
-0.085282 0.47431 0.11305 -0.13341 0.76327 0.63215
-0.21103 0.3992 -0.31151 0.92622 -0.34134 0.16002
-0.21728 -0.071031 0.020249 -0.95313 0.29568 0.064144
-0.26566 0.34959 0.25133 -0.98005 0.042967 -0.19407
0.010408 0.32423 -0.16674 0.32333 0.23967 -0.91543
0.023324 -0.10502 0.21859 0.85778 -0.26197 -0.44225
-0.16519 -0.10052 0.12545 -0.65696 0.21663 0.72213
-0.20341 0.011893 0.27733 -0.70859 -0.68948 0.15006
-0.1194 -0.12954 -0.17387 -0.71946 -0.694 -0.027179
-0.016026 0.48817 -0.057426 0.32754 0.91464 -0.23694
-0.2243 0.42611 0.18015 -0.67665 0.53033 -0.51078
-0.07625 -0.087642 -0.34226 0.15157 -0.025722 -0.98811
-0.18135 0.073223 0.16002 -0.22084 -0.45976 -0.86015
-0.15287 0.47361 0.021211 -0.47136 0.88188 0.010799
-0.26892 0.32257 -0.24859 -0.9905 0.0044857 0.13742
-0.10469 -0.022522 -0.28433 -0.80979 0.52598 -0.25999
-0.010799 -0.26557 -0.12689 0.4443 -0.27634 -0.85219
-0.22845 0.41449 0.17533 -0.75844 0.45292 -0.46865
-0.20128 0.066216 -0.16522 -0.82707 -0.29916 0.47588
-0.0065501 0.074318 -0.0039477 0.89686 -0.42631 -0.11795
-0.14774 -0.085931 -0.12595 -0.84706 0.1687 -0.50402
-0.25508 0.41918 -0.24607 -0.94915 0.31322 0.031901
-0.21965 0.12788 0.054621 -0.56917 -0.79019 0.22724
-0.17253 0.074253 -0.22776 0.94379 0.21949 -0.24715
-0.22981 0.27575 0.44989 -0.27518 0.071038 0.95877
0.016253 0.39618 -0.13536 0.37198 0.46061 -0.80589
-0.038698 0.28687 0.20451 0.13263 0.13129 0.98243
0.22309 -0.02183 -0.024313 0.086763 0.27084 -0.95871
-0.0034496 -0.3753 0.12557 0.96777 0.19406 0.16052
-0.15517 0.41818 0.15088 0.090723 0.69319 0.71503
0.10271 -0.17656 0.036713 0.95595 0.22455 0.18903
-0.24246 0.17218 -0.066729 -0.83534 -0.4322 -0.33972
-0.22454 0.17923 0.1507 -0.94966 -0.31223 0.025735
-0.18428 0.079716 0.35953 0.35707 -0.47809 0.80245
-0.16178 0.072938 -0.14772 0.68197 -0.34439 0.64523
-0.16121 0.3602 -0.17404 0.44041 0.35758 -0.82352
-0.031088 -0.012877 -0.15938 0.53965 0.755 0.37251
-0.13519 -0.31543 0.13511 -0.88527 0.012273 0.46492
-0.21682 0.23062 0.29405 0.95925 0.074762 0.27248
-0.028659 0.0099769 0.25152 0.23137 0.96154 -0.148
-0.23968 0.18529 0.10601 -0.8544 -0.394 0.33877
-0.22384 0.28521 0.30611 0.98207 0.068423 0.17567
-0.18609 0.09822 -0.25775 0.94412 0.28015 -0.17366
-0.21033 0.37945 -0.34551 0.93351 -0.287 0.21491
-0.27078 0.28903 0.34855 -0.99745 -0.0080481 0.070951
-0.12306 -0.49975 0.055043 -0.031661 -0.99339 -0.11035
-0.0064703 -0.056124 -0.14913 0.84429 0.30047 0.44373
-0.18546 0.14153 -0.22575 0.89521 0.1278 -0.42692
-0.12866 0.15623 -0.16236 0.24197 -0.54595 -0.80212
0.095967 -0.21882 0.070483 0.89515 -0.071186 0.44004
-0.23757 0.4072 -0.16847 -0.87259 0.27282 0.40517
-0.091726 -0.0012597 -0.18511 -0.37986 0.91442 0.13983
-0.24333 0.23743 0.19746 -0.96283 -0.14696 -0.22664
-0.20065 0.17854 -0.39777 0.81556 -0.14286 -0.56076
-0.17404 -0.18502 -0.12141 -0.61125 0.046265 -0.79008
-0.18691 0.44779 0.21057 0.98171 0.15142 0.11544
-0.26996 0.29634 0.074424 -0.96007 0.083298 0.26707
-0.14882 0.22711 -0.19276 0.30261 -0.10715 -0.94707
-0.24902 0.37772 0.061369 -0.85234 0.46729 0.23485
-0.058888 0.41917 0.15984 0.040664 0.52071 0.85276
-0.21417 -0.20157 0.08262 -0.92403 -0.10369 0.36798
-0.18619 0.38837 0.21 0.87769 0.058401 0.47566
-0.13211 0.48367 -0.015071 -0.39928 0.91683 0.002364
-0.22763 -0.12401 -0.017475 -0.97909 0.13329 -0.15369
0.034586 -0.20806 -0.1192 0.5062 -0.065222 -0.85995
-0.055497 -0.15239 0.34271 -0.0034036 -0.70745 0.70675
0.032431 -0.12162 0.25173 0.76244 -0.50628 -0.40294
-0.015806 0.11992 0.12035 0.24336 -0.84071 0.48372
-0.18518 0.1123 0.065596 -0.39246 -0.88165 0.26205
-0.21903 0.36609 -0.26365 0.96268 -0.090887 -0.25494
-0.10719 -0.014817 0.27531 -0.74331 0.63836 0.19997
0.069295 -0.11166 0.056047 0.80253 0.5215 0.2898
-0.22018 0.36407 0.34202 0.95526 -0.23497 -0.17961
0.15937 0.072588 -0.010853 -0.8996 0.42185 -0.11301
-0.23709 0.12195 -0.33425 -0.91106 -0.31083 -0.27085
-0.2597 0.20337 0.072512 -0.91766 -0.28866 0.27309
0.003896 -0.11388 -0.17204 0.77538 -0.44494 0.44812
-0.21505 -0.10729 0.070633 -0.90912 0.19297 0.36915
-0.057091 0.0028434 -0.32127 -0.21664 0.841 -0.49577
0.20154 0.15722 -0.03992 -0.78619 -0.077121 -0.61316
-0.23632 0.32086 0.43476 -0.50223 0.3391 0.79547
0.0079047 0.24009 -0.17625 0.32776 -0.085254 -0.94091
-0.18488 0.11143 0.37253 0.95767 0.036668 0.28553
-0.25968 0.1943 -0.2921 -0.9772 -0.21205 0.010517
-0.21676 0.32738 0.2734 0.91801 0.041997 0.39433
-0.21664 0.19362 0.31695 0.98506 0.16298 0.055638
-0.095027 -0.49092 0.036707 0.028175 -0.38085 -0.92421
-0.14535 -0.32275 0.10149 -0.9014 -0.39309 0.18153
-0.0083726 -0.43336 0.07424 0.7622 0.13108 -0.63393
-0.098001 -0.016246 0.13346 -0.3341 0.93245 0.13751
0.096227 0.27111 0.12421 0.81577 -0.017459 0.57812
-0.21998 -0.24632 0.022768 -0.94057 -0.32628 0.094121
0.24006 0.12355 0.066155 0.12052 -0.19977 0.9724
0.2488 -0.031093 0.032897 0.84214 0.055271 -0.53643
-0.22032 -0.17978 0.070757 -0.94684 -0.060212 0.31601
-0.091954 0.12334 -0.12172 -0.015021 -0.83453 -0.55076
-0.24612 0.35317 0.18578 -0.95321 0.061745 -0.29595
-0.13365 -0.40959 -0.15257 -0.6311 0.17662 -0.75533
-0.26027 0.28317 -0.087141 -0.93916 0.021186 -0.34283
0.010004 0.28852 0.19179 0.33188 0.12357 0.93519
0.16277 -0.023924 -0.022902 -0.46893 -0.34405 -0.81347
0.044102 0.31823 -0.15258 0.5071 0.19876 -0.83866
-0.0086071 -0.41031 0.15461 0.79739 0.15375 0.58355
-0.27091 0.325 -0.032069 -0.96899 0.20013 -0.14494
-0.25924 0.20529 -0.34139 -0.96701 -0.22474 -0.11996
-0.21549 0.15397 0.14547 -0.93356 -0.34569 -0.094673
0.10826 0.37478 0.07757 0.75893 0.39573 0.51712
-0.077425 0.25899 -0.19147 0.030205 0.023302 -0.99927
-0.032337 0.16478 -0.16039 0.19162 -0.55535 -0.80924
-0.26732 0.32649 0.25736 -0.98324 0.0039547 -0.18228
-0.24698 0.23284 -0.10971 -0.91944 -0.20559 -0.33522
-0.27639 0.30529 -0.010422 -0.99044 0.12405 -0.060324
0.21545 0.20009 0.07783 -0.12447 -0.23195 0.96473
-0.24011 0.38481 -0.16161 -0.91655 0.1937 0.34988
-0.058288 -0.19587 -0.15548 0.1485 -0.044308 -0.98792
-0.22015 0.077766 0.34863 -0.74142 -0.44222 0.50471
-0.0072502 -0.16039 0.31318 0.16641 -0.9858 0.022471
0.17673 0.32605 0.068586 0.19141 0.49379 0.84825
-0.038574 -0.42483 -0.16521 0.45991 0.094929 -0.88288
-0.21121 0.39985 -0.25456 0.95558 -0.21103 -0.20574
-0.13931 -0.092422 -0.1389 -0.88365 0.077262 -0.46174
-0.20276 0.1715 -0.35431 0.92935 0.28537 0.23425
-0.012792 -0.44368 -0.049704 0.68985 0.11663 0.7145
-0.12115 -0.40339 -0.1598 -0.4862 0.16571 -0.85799
-0.24683 0.14145 -0.26612 -0.97261 -0.21678 0.083838
-0.24264 0.17963 0.39573 -0.85205 -0.35149 0.3879
-0.036717 0.49415 0.0334 0.21986 0.96556 -0.13912
-0.13525 0.025309 0.07098 -0.5211 0.52391 0.67377
-0.22741 -0.11536 -0.0084497 -0.98291 0.15336 -0.10186
-0.2149 -0.23224 -0.046457 -0.93346 -0.22247 -0.28136
0.0069677 -0.03136 0.32997 0.37458 0.11619 0.91989
0.027437 -0.24823 -0.11383 0.45858 -0.3018 -0.83583
-0.20872 0.17321 -0.33426 0.93745 0.26995 0.21981
-0.19702 0.1538 0.26468 0.91664 0.16253 0.36517
-0.27146 0.28714 0.30035 -0.99742 -0.039123 -0.060258
0.17526 0.085833 -0.034203 -0.66809 0.27724 -0.6905
-0.0094532 0.12335 -0.10566 0.27068 -0.82892 -0.48952
-0.05843 -0.068586 -0.33788 0.27095 0.021849 -0.96235
-0.26781 0.36221 -0.26505 -0.99205 0.1201 0.037706
-0.20656 -0.053924 -0.029891 -0.89167 0.37386 -0.25526
-0.13332 -0.056217 -0.21849 -0.9786 0.1482 -0.14273
-0.063692 -0.5 -0.12752 0.0011082 -0.99996 -0.0086955
-0.21647 0.40648 -0.12886 -0.71105 0.58313 0.3929
-0.26761 0.34607 0.025054 -0.95133 0.30439 0.048121
0.19427 0.24152 0.084285 -0.0041133 -0.10009 0.99497
-0.093404 -0.39648 -0.16845 -0.2021 0.12798 -0.97097
-0.21626 -0.084696 0.050814 -0.93488 0.25615 0.24575
-0.011051 -0.083361 -0.13132 0.91235 0.0049995 0.40937
-0.043292 -0.5 -0.081079 3.0432e-17 -1 3.0432e-17
0.16401 0.057128 0.051115 -0.57889 0.15848 0.79985
-0.12913 -0.34074 -0.13581 -0.73873 0.23763 -0.63073
-0.1885 0.10471 -0.3574 0.48435 -0.38124 -0.78744
-0.091013 0.13045 -0.13259 0.0018756 -0.82793 -0.56083
-0.23264 0.11996 -0.34585 -0.85138 -0.3572 -0.38414
0.033293 0.12443 -0.076114 0.42353 -0.81754 -0.3902
-0.2679 0.30057 -0.35364 -0.98762 0.036913 -0.15244
0.20523 0.31634 -0.048203 0.38436 0.55479 -0.73788
-0.26256 0.19283 0.043984 -0.93185 -0.3291 0.1528
-0.070898 -0.5 0.1034 -0.00010662 -1 -9.3107e-06
-0.14792 -0.49643 0.063176 -0.59628 -0.6996 -0.3937
0.064243 0.41971 -0.082288 0.64239 0.55798 -0.52535
0.0035541 -0.33368 0.046098 0.28895 -0.94772 0.13543
-0.25287 0.18678 0.2622 -0.9643 -0.1872 -0.1873
0.1792 -0.031981 0.043707 -0.19293 -0.27588 0.94163
-0.083269 0.36202 0.18792 -0.039048 0.35437 0.93429
-0.1766 0.065885 -0.26598 0.94985 0.30841 -0.051595
0.16957 0.082355 0.046455 -0.79052 0.35345 0.50016
0.036061 -0.31603 -0.050338 0.41446 -0.8406 -0.34873
-0.22501 0.46099 -0.21305 -0.63038 0.74307 0.22463
0.056723 0.24695 0.16743 0.62572 -0.10334 0.77317
0.050193 0.45423 -0.0291 0.59143 0.8062 0.015572
-0.17824 0.45048 -0.053362 -0.56795 0.76451 -0.3049
-0.26572 0.22807 0.30488 -0.98599 -0.15764 -0.054444
-0.0040595 0.46722 0.10488 0.39067 0.73726 0.55121
0.036251 -0.017277 -0.28486 0.78212 0.62194 0.038335
0.0017219 -0.27417 -0.11678 0.45761 -0.36673 -0.81
-0.063738 -0.00046942 0.34078 -0.31931 0.81867 0.4773
-0.088911 0.32835 0.19824 -0.016648 0.26844 0.96315
-0.12411 -0.10823 -0.24207 -0.92011 -0.32903 -0.21245
-0.26939 0.23697 0.065653 -0.96335 -0.15426 0.21945
-0.21685 -0.092071 -0.037879 -0.93287 0.22925 -0.27785
-0.20998 -0.063943 -0.031816 -0.90645 0.33167 -0.26141
-0.15428 0.44147 -0.10118 -0.34642 0.79066 -0.50483
-0.18591 0.074587 -0.33936 0.20342 -0.53901 -0.81737
-0.17656 0.08546 -0.13538 0.0026358 -0.48102 0.87671
-0.2573 0.41145 0.28776 -0.94749 0.31515 0.054215
0.011938 -0.020874 0.23894 0.74869 0.56386 -0.34861
0.092618 0.18386 0.090113 0.7603 -0.46982 0.44856
0.015108 -0.14051 -0.11932 0.49525 0.30676 -0.81279
-0.17409 -0.2916 -0.070709 -0.72144 -0.6194 -0.30961
-0.25245 0.32247 -0.39768 -0.86395 0.22553 -0.45025
-0.023468 -0.13902 -0.17813 0.31216 -0.90784 0.27998
-0.011872 0.018393 0.039201 0.87996 0.33104 0.34071
0.039455 -0.12442 0.11081 0.59815 0.45331 0.66086
-0.19864 0.19631 0.25749 0.87947 0.067306 0.47118
-0.22106 0.28023 -0.27838 0.96288 0.072308 -0.26005
-0.088098 -0.36803 -0.1659 -0.16516 0.16828 -0.9718
-0.044153 -0.14444 -0.17695 0.16832 -0.95531 0.243
-0.18508 0.10521 0.26254 0.93544 0.23841 0.26097
-0.11375 -0.36694 0.053824 -0.57874 -0.092007 -0.81031
-0.19955 0.38631 -0.21862 0.90249 -0.042102 -0.42864
-0.11305 -0.5 0.13009 -0.0010709 -1 9.8575e-05
-0.069082 -0.35492 0.039273 0.17559 -0.69833 -0.69391
-0.12776 -0.42981 0.17872 -0.51384 0.14505 0.84554
0.21424 0.032086 -0.023547 0.67262 -0.31558 -0.66932
-0.17095 -0.1604 -0.11993 -0.58422 0.15863 -0.79595
-0.2746 0.25342 0.049463 -0.9843 -0.097863 0.14687
0.07304 0.32929 -0.12727 0.68198 0.23318 -0.69321
-0.24346 0.12686 -0.30319 -0.96631 -0.2472 -0.071645
-0.013239 -0.036195 0.17136 0.78607 0.45396 -0.41953
-0.19943 0.21519 0.25633 0.86765 0.046975 0.49495
-0.12948 -0.085587 -0.24079 -0.96591 -0.12052 -0.22911
-0.13965 -0.33293 0.067163 -0.67983 -0.73337 -0.00036978
-0.034055 -0.056242 0.34707 0.33045 0.044107 0.94279
0.17422 -0.059736 0.015918 -0.64893 -0.74268 0.16528
-0.045112 -0.095775 0.35093 0.31644 -0.038804 0.94782
-0.084207 0.36392 -0.16937 -0.042988 0.36261 -0.93095
-0.0050416 -0.16783 0.15487 0.40336 0.16244 0.90051
-0.15309 0.10484 0.081295 -0.32975 -0.87242 0.36077
0.25302 -0.0377 0.014838 0.21396 0.010036 0.97679
-0.092323 0.063832 -0.060341 -0.23748 -0.075279 -0.96847
-0.071948 -0.14957 -0.19732 -0.07865 -0.9882 0.1314
0.11006 0.31591 -0.08244 0.78351 0.13562 -0.6064
-0.12579 0.26297 0.20862 0.019665 0.035639 0.99917
-0.10686 -0.030629 -0.29139 -0.86457 0.41829 -0.27847
-0.24428 0.13345 -0.31259 -0.96179 -0.25252 -0.10582
0.0066123 -0.18291 -0.13399 0.42283 0.087642 -0.90196
-0.051374 0.094798 -0.076574 0.1867 -0.75803 -0.62493
0.075155 0.13768 0.052061 0.65069 -0.70911 0.27159
-0.13953 -0.035734 0.11579 -0.59257 0.50865 0.62461
0.0162 -0.032249 -0.30846 0.40721 0.12689 -0.90448
-0.15182 -0.12252 0.1417 -0.65289 0.15267 0.74191
-0.11305 -0.49981 -0.14937 -0.01292 -0.99575 -0.091142
-0.010941 0.0088194 0.046679 0.8297 0.398 0.39139
-0.26258 0.3939 -0.25723 -0.97517 0.21948 0.029585
-0.11751 0.0051365 0.096355 -0.3549 0.57671 0.73584
-0.2097 0.36534 0.25513 0.89529 0.0047378 0.44547
0.065622 0.22196 -0.13574 0.70651 -0.2445 -0.66412
0.26468 0.14536 -0.04723 0.4174 -0.21295 -0.88342
-0.19019 0.35646 0.22124 0.81315 0.11181 0.57121
0.1788 0.019881 -0.034974 0.028414 -0.13665 -0.99021
0.20108 0.34304 0.032613 0.52032 0.79626 0.3086
0.098795 0.17445 0.067278 0.75089 -0.54011 0.38007
0.10227 0.30605 -0.0956 0.81077 0.10442 -0.57598
-0.23639 0.38738 0.17187 -0.90742 0.22157 -0.35707
-0.21215 0.30024 -0.41174 0.99675 0.037936 -0.071082
-0.15084 0.47486 -0.021849 -0.46226 0.88642 -0.023983
-0.026241 -0.3637 0.16194 0.68123 0.19686 0.70511
-0.0094318 -0.34162 -0.072491 0.95015 -0.26599 0.16271
0.0047398 -0.0058159 0.011968 0.87293 0.48702 0.028248
0.030377 0.3665 -0.14377 0.40956 0.37231 -0.83285
-0.19534 -0.065624 0.083869 -0.76836 0.33326 0.5464
-0.20243 0.46911 0.27488 0.072501 0.96005 0.27026
-0.22306 0.124 0.3809 -0.61882 -0.46384 0.63396
-0.26855 0.29155 -0.25186 -0.98585 -0.057742 0.15739
0.030667 0.34671 -0.15149 0.40915 0.30616 -0.85957
-0.12503 -0.37121 0.064266 -0.76095 0.053025 -0.64664
0.18066 0.10772 0.045188 -0.84787 0.3772 0.37262
-0.21619 0.34558 -0.4082 0.47268 0.38541 -0.79248
-0.1862 0.098398 0.32574 0.91996 0.35698 -0.162
-0.25853 0.19813 0.35099 -0.96793 -0.23 0.10105
-0.20281 0.12179 -0.12941 -0.8296 -0.39313 0.3965
-0.11524 0.35984 -0.16854 -0.052444 0.38171 -0.92279
0.085421 0.20074 -0.098354 0.77669 -0.35988 -0.51695
-0.0081733 -0.48084 0.16241 0.72411 -0.10505 0.68164
-0.13614 -0.070006 0.22082 -0.99676 0.022467 0.077256
-0.15852 0.46204 0.077003 -0.51608 0.7924 0.32523
-0.048309 -0.15849 0.28981 -0.064901 -0.9941 -0.086938
-0.20642 0.2404 0.26675 0.88585 0.050878 0.46118
-0.0087373 -0.093286 0.13185 0.715 0.36841 0.59419
-0.21125 0.22308 0.38595 0.9652 0.16461 -0.20322
-0.23063 0.14091 -0.042698 -0.74836 -0.61546 -0.24733
-0.19018 0.40906 -0.20122 0.92283 -0.034251 -0.38368
-0.26597 0.25974 -0.25381 -0.97817 -0.10828 0.17737
0.031829 0.45905 0.084335 0.50949 0.76748 0.3891
-0.26309 0.22184 -0.34115 -0.97537 -0.19321 -0.10638
-0.068496 -0.34744 0.00048517 0.053026 -0.99665 0.062244
0.15864 0.072413 0.0044015 -0.8933 0.44943 -0.0049405
-0.2392 0.42658 0.33312 -0.66072 0.65964 0.35822
-0.0022743 -0.11175 -0.15947 0.78314 -0.41688 0.4614
