0.279 0.16135 -0.007145 0.30693 0.59957 -0.73912
0.27506 0.15628 -0.012645 0.26168 0.54281 -0.79805
0.27974 0.14689 -0.017646 0.29153 0.55245 -0.7809
0.27912 0.1487 -0.016252 0.2576 0.58552 -0.76864
0.2801 0.1521 -0.013744 0.30928 0.54382 -0.78014
0.28748 0.14875 -0.012609 0.37212 0.54263 -0.75305
0.28753 0.14375 -0.015565 0.27411 0.60789 -0.7452
0.28338 0.14726 -0.015805 0.36033 0.52668 -0.76992
0.28736 0.15293 -0.009807 0.40218 0.5372 -0.74139
0.2834 0.1562 -0.0092 0.34712 0.57481 -0.74101
0.28683 0.16128 -0.003484 0.36567 0.58702 -0.72228
0.28808 0.17108 0.00585 0.35082 0.64199 -0.68174
0.28364 0.16904 0.001508 0.35188 0.62302 -0.69859
0.2797 0.17207 0.002282 0.33036 0.65098 -0.68344
0.27172 0.16821 -0.00434 0.25423 0.61937 -0.74279
0.27605 0.17022 -0.000942 0.29671 0.63049 -0.71725
0.29134 0.16411 0.00124 0.39452 0.57373 -0.71776
0.28369 0.17473 0.007078 0.35138 0.68152 -0.64192
0.27549 0.17564 0.003869 0.27807 0.68194 -0.67649
0.27127 0.17889 0.005765 0.25526 0.72113 -0.64406
0.27541 0.17936 0.007855 0.27456 0.73534 -0.61959
0.27941 0.17957 0.010095 0.32882 0.73714 -0.59034
0.29107 0.1736 0.009808 0.35632 0.6866 -0.63373
0.30775 0.1729 0.020162 0.39407 0.80936 -0.43549
0.30389 0.17257 0.017531 0.36351 0.77602 -0.51541
0.30415 0.17521 0.021124 0.44628 0.76359 -0.46665
0.30758 0.17534 0.026122 0.48221 0.79553 -0.36687
0.3118 0.17164 0.022024 0.45687 0.80644 -0.37539
0.31628 0.16797 0.020304 0.46318 0.77297 -0.43356
0.31594 0.17141 0.02774 0.47036 0.8205 -0.32487
0.31157 0.16872 0.016849 0.45233 0.74604 -0.48869
0.30379 0.16987 0.012978 0.30821 0.75105 -0.58389
0.30745 0.17017 0.01502 0.33955 0.78636 -0.51609
0.30767 0.16831 0.012848 0.36527 0.70894 -0.60331
0.32843 0.16279 0.023243 0.42038 0.82326 -0.38147
0.32746 0.16501 0.027349 0.42024 0.85454 -0.30522
0.32814 0.1607 0.018978 0.39518 0.79998 -0.45151
0.33216 0.15681 0.01609 0.40605 0.78928 -0.46061
0.3276 0.15671 0.012417 0.39161 0.77648 -0.49368
0.31993 0.16084 0.014215 0.39861 0.76807 -0.50118
0.32373 0.16151 0.017001 0.32833 0.7945 -0.51085
0.32409 0.16379 0.021729 0.42417 0.79354 -0.43632
0.32024 0.16602 0.020881 0.48114 0.7396 -0.47064
0.32011 0.16393 0.01805 0.46427 0.70207 -0.53995
0.31613 0.16422 0.013973 0.51628 0.68169 -0.51841
0.29208 0.18156 0.021257 0.41548 0.78523 -0.45913
0.29581 0.18177 0.025566 0.43614 0.80714 -0.39788
0.3004 0.17642 0.019627 0.41473 0.76845 -0.48733
0.29606 0.17783 0.018585 0.39159 0.77884 -0.48997
0.29558 0.17376 0.01265 0.3755 0.70778 -0.59837
0.28319 0.17985 0.01276 0.33248 0.74109 -0.5833
0.28725 0.17866 0.013457 0.34797 0.73879 -0.57715
0.29162 0.17804 0.015527 0.37968 0.74792 -0.54448
0.28784 0.18338 0.020723 0.37787 0.78817 -0.4858
0.28374 0.18286 0.017081 0.33392 0.77607 -0.53499
0.27557 0.18305 0.012787 0.27433 0.78383 -0.5571
0.26806 0.18747 0.015315 0.29681 0.78679 -0.54117
0.25888 0.19007 0.013687 0.29814 0.76245 -0.57426
0.26811 0.19071 0.020435 0.32234 0.813 -0.4849
0.27229 0.18605 0.015779 0.28947 0.80499 -0.51788
0.27944 0.18404 0.016255 0.29746 0.79583 -0.52741
0.29175 0.18394 0.025351 0.43178 0.80803 -0.40081
0.28346 0.18577 0.021497 0.32474 0.82059 -0.47029
0.28762 0.18611 0.025395 0.39145 0.82583 -0.40592
0.2552 0.19933 0.025843 0.33923 0.81439 -0.47085
0.26694 0.19524 0.027769 0.36124 0.82555 -0.43356
0.27868 0.18888 0.024106 0.29128 0.83732 -0.46266
0.25918 0.20144 0.033182 0.3662 0.85139 -0.37555
0.2592 0.20299 0.037205 0.36824 0.88508 -0.28466
0.2632 0.20077 0.035798 0.38087 0.86456 -0.32784
0.25947 0.1992 0.028888 0.3611 0.82337 -0.4378
0.27126 0.19757 0.036445 0.3478 0.87499 -0.33679
0.2754 0.19626 0.037359 0.36135 0.89089 -0.2752
0.27553 0.19752 0.042895 0.39002 0.90258 -0.18232
0.2672 0.19971 0.037911 0.37445 0.88392 -0.28014
0.25954 0.20435 0.043051 0.3795 0.90699 -0.18263
0.26319 0.20214 0.040085 0.38643 0.8898 -0.24274
0.26684 0.20121 0.04311 0.37978 0.90629 -0.1855
0.27492 0.19509 0.033799 0.32243 0.86092 -0.39352
0.27109 0.19579 0.03246 0.3397 0.84487 -0.41328
0.27951 0.19148 0.029559 0.30786 0.85793 -0.41131
0.2748 0.19293 0.029684 0.30584 0.84892 -0.43104
0.27923 0.1937 0.034335 0.3404 0.87467 -0.34507
0.28735 0.19068 0.036193 0.43519 0.85699 -0.27598
0.28756 0.18916 0.032351 0.42235 0.84092 -0.33835
0.28344 0.18912 0.027975 0.35081 0.84244 -0.40894
0.28355 0.1912 0.032645 0.38349 0.8549 -0.3494
0.28367 0.19263 0.036689 0.4002 0.88228 -0.24782
0.28397 0.19379 0.043145 0.43905 0.88632 -0.1472
0.31132 0.17735 0.03881 0.52995 0.83419 -0.15257
0.30771 0.17709 0.029623 0.49545 0.79603 -0.34765
0.3115 0.17502 0.030007 0.48264 0.82327 -0.29881
0.31578 0.17362 0.033514 0.47632 0.84639 -0.23822
0.31585 0.17491 0.039631 0.50502 0.85546 -0.11463
0.32743 0.1675 0.041398 0.5265 0.83528 -0.15844
0.33191 0.16501 0.038303 0.48298 0.86992 -0.099816
0.32848 0.16578 0.031613 0.42299 0.88683 -0.18603
0.31975 0.17089 0.03184 0.53026 0.80468 -0.26704
0.3237 0.16957 0.040093 0.57328 0.7764 -0.26184
0.32019 0.17259 0.042897 0.52667 0.84615 -0.081498
0.30832 0.17983 0.043203 0.59184 0.7987 -0.10866
0.30755 0.17984 0.038522 0.53112 0.82926 -0.17386
0.29952 0.18351 0.035045 0.46062 0.84537 -0.2705
0.29974 0.18145 0.029604 0.42967 0.84101 -0.32875
0.30394 0.17924 0.028899 0.46804 0.81908 -0.33174
0.30767 0.17855 0.033687 0.52074 0.81833 -0.24324
0.2957 0.18594 0.03582 0.4754 0.84076 -0.25908
0.29568 0.18396 0.030221 0.45769 0.82457 -0.33258
0.29164 0.18625 0.030405 0.44613 0.83139 -0.3313
0.28767 0.19155 0.040213 0.45146 0.87836 -0.15706
0.2914 0.18879 0.037187 0.46992 0.85104 -0.23431
0.30019 0.18446 0.039967 0.48897 0.85583 -0.16873
0.33616 0.16229 0.042607 0.55322 0.83035 -0.066813
0.34025 0.15963 0.040053 0.54627 0.83151 -0.10091
0.34863 0.15334 0.041767 0.53019 0.84599 -0.056545
0.34811 0.15384 0.039889 0.57078 0.81849 -0.065475
0.34459 0.15676 0.043106 0.59575 0.80188 -0.045535
0.34855 0.15265 0.036411 0.47954 0.85254 -0.20787
0.35185 0.15196 0.039807 0.44916 0.89145 -0.059747
0.35232 0.1511 0.034641 0.39283 0.90012 -0.18832
0.34846 0.15173 0.033116 0.49002 0.85026 -0.19217
0.34424 0.15656 0.036072 0.57998 0.80031 -0.15208
0.33972 0.15902 0.036716 0.5544 0.81158 -0.18431
0.3328 0.15996 0.022729 0.48312 0.79828 -0.35964
0.34435 0.15467 0.027635 0.58105 0.78946 -0.19784
0.34045 0.15388 0.018967 0.47664 0.80297 -0.35785
0.33999 0.15556 0.02254 0.47444 0.82769 -0.29972
0.3366 0.1553 0.017771 0.4255 0.81008 -0.4034
0.34033 0.15148 0.013875 0.48468 0.76275 -0.42813
0.34385 0.15341 0.02302 0.53912 0.78238 -0.3118
0.34408 0.1507 0.017444 0.53016 0.75235 -0.39104
0.35249 0.15014 0.031898 0.37541 0.90241 -0.21146
0.34866 0.15124 0.029645 0.48708 0.86008 -0.15172
0.34804 0.15019 0.023179 0.51777 0.81283 -0.26686
0.35254 0.1465 0.018935 0.44352 0.83175 -0.33389
0.35646 0.14477 0.020898 0.42888 0.84936 -0.30764
0.34807 0.14781 0.016618 0.42149 0.79426 -0.4376
0.34458 0.14632 0.012618 0.44163 0.74946 -0.49323
0.34397 0.14893 0.014792 0.55225 0.66558 -0.50202
0.35243 0.14403 0.014236 0.40134 0.83038 -0.38651
0.36468 0.13735 0.013233 0.30517 0.90009 -0.31097
0.36829 0.13731 0.013318 0.23264 0.92785 -0.29152
0.3644 0.1403 0.019593 0.45472 0.8162 -0.35642
0.36084 0.14108 0.01521 0.48023 0.81095 -0.33428
0.3565 0.14329 0.016047 0.37996 0.86092 -0.33831
0.36044 0.14326 0.021075 0.42651 0.85715 -0.28877
0.35662 0.14618 0.024402 0.44682 0.84557 -0.29216
0.35668 0.14758 0.028965 0.45272 0.8665 -0.21029
0.35606 0.14935 0.040656 0.48912 0.87121 -0.041868
0.35643 0.14865 0.033622 0.46043 0.87515 -0.1487
0.35247 0.14885 0.025952 0.41653 0.87813 -0.23534
0.36393 0.14305 0.027236 0.45713 0.85796 -0.2344
0.36088 0.14615 0.033671 0.48051 0.86587 -0.13919
0.36482 0.14432 0.039785 0.42369 0.90172 -0.085973
0.36826 0.14267 0.033914 0.42224 0.898 -0.12378
0.3684 0.14148 0.029686 0.40769 0.87098 -0.27418
0.36471 0.14141 0.02252 0.44773 0.85027 -0.27673
0.4015 0.1293 0.034551 0.23507 0.93712 -0.25796
0.40529 0.1305 0.037117 0.04363 0.95965 -0.27779
0.39704 0.13395 0.042537 0.35908 0.91164 -0.19993
0.4011 0.13155 0.041985 0.26804 0.93016 -0.25091
0.39704 0.13224 0.035093 0.40049 0.88699 -0.22989
0.4096 0.12962 0.036375 0.10676 0.94796 -0.29997
0.42145 0.12986 0.040944 0.051926 0.96057 -0.27313
0.4127 0.13097 0.042772 0.087125 0.97074 -0.22377
0.4261 0.12958 0.040444 0.052363 0.9524 -0.30031
0.42511 0.12831 0.036791 0.050929 0.93009 -0.36378
0.4142 0.1292 0.03657 0.09764 0.94563 -0.31024
0.41295 0.12802 0.032939 0.11436 0.9254 -0.36132
0.4086 0.12817 0.032391 0.10364 0.93685 -0.33401
0.39316 0.12958 0.021572 0.44298 0.84165 -0.30886
0.39727 0.13029 0.029559 0.36667 0.88741 -0.27939
0.39738 0.12887 0.02642 0.32575 0.85893 -0.39513
0.38813 0.13071 0.018697 0.37936 0.87169 -0.31023
0.38465 0.13389 0.023796 0.39543 0.88279 -0.25361
0.37671 0.13354 0.013989 0.36447 0.87048 -0.33081
0.3881 0.13417 0.030411 0.33262 0.91421 -0.23147
0.38899 0.13209 0.025372 0.36085 0.89173 -0.27313
0.39296 0.13164 0.027646 0.36018 0.88538 -0.29391
0.38077 0.13584 0.025086 0.29383 0.92231 -0.25103
0.38075 0.13656 0.028066 0.32899 0.92705 -0.17982
0.37227 0.13532 0.01343 0.40376 0.86743 -0.29077
0.37594 0.13536 0.018433 0.3062 0.92467 -0.22634
0.38066 0.13452 0.020656 0.32049 0.89913 -0.29808
0.3767 0.13683 0.025274 0.27743 0.91301 -0.29906
0.37292 0.13675 0.02281 0.39349 0.85553 -0.33649
0.36884 0.13833 0.01933 0.39023 0.88053 -0.26905
0.36855 0.14035 0.026789 0.38533 0.88784 -0.25152
0.37251 0.13892 0.025293 0.39927 0.84945 -0.345
0.37304 0.13999 0.031057 0.37414 0.90956 -0.18086
0.38493 0.13692 0.039049 0.28554 0.94932 -0.13138
0.38084 0.13675 0.033145 0.32078 0.93594 -0.14532
0.38813 0.13503 0.033675 0.28705 0.93636 -0.20208
0.37993 0.13831 0.038489 0.33008 0.94386 -0.013362
0.37319 0.14015 0.034809 0.40298 0.90686 -0.12332
0.36912 0.14252 0.038224 0.38564 0.91517 -0.11724
0.36908 0.14321 0.042338 0.3664 0.92442 -0.10581
0.37306 0.14118 0.039824 0.42627 0.90191 -0.069687
0.37693 0.13857 0.042824 0.36628 0.92822 -0.065145
0.39274 0.13453 0.040469 0.25982 0.94336 -0.20629
0.38895 0.13545 0.040702 0.31066 0.93339 -0.17963
0.38095 0.1376 0.041273 0.18138 0.98096 -0.069402
0.38853 0.13689 0.054006 0.22813 0.97363 -0.002604
0.3884 0.13728 0.057642 0.20407 0.97609 -0.07486
0.39367 0.13589 0.056266 0.21954 0.97254 -0.077245
0.3928 0.13622 0.049876 0.21186 0.97489 -0.068652
0.38876 0.13622 0.045831 0.24741 0.96327 -0.10436
0.38481 0.13758 0.04332 0.24583 0.96094 -0.12714
0.38816 0.1372 0.050056 0.25064 0.96805 -0.007575
0.38484 0.1378 0.051375 0.21363 0.97332 0.083742
0.3844 0.13831 0.056875 0.1517 0.98579 -0.072214
0.38486 0.13781 0.055808 0.22535 0.96895 -0.10172
0.38455 0.13806 0.047146 0.27388 0.95737 -0.091844
0.3805 0.13903 0.048133 0.15664 0.98556 -0.064255
0.3812 0.1383 0.05206 0.071289 0.95545 0.28643
0.37718 0.1386 0.045585 0.2985 0.9513 0.07701
0.38044 0.13881 0.045765 0.10822 0.98705 -0.11844
0.38042 0.13905 0.049853 0.12776 0.97936 0.15659
0.38101 0.13832 0.057704 0.11684 0.99238 -0.039205
0.38088 0.13782 0.052891 -0.033106 0.94178 0.3346
0.38084 0.13769 0.053593 0.081558 0.99271 -0.08875
0.38421 0.13796 0.059645 0.16157 0.98548 0.052187
0.38424 0.13818 0.054116 0.051875 0.99745 0.049083
0.38103 0.13843 0.055569 0.13255 0.98344 -0.12364
0.38094 0.13831 0.06102 0.06226 0.9801 0.18848
0.38441 0.13799 0.066959 0.090009 0.99586 0.012908
0.38078 0.13765 0.063081 0.016363 0.99965 0.0206
0.38084 0.1382 0.065101 0.038081 0.99834 -0.04311
0.38081 0.13883 0.059808 0.12559 0.98818 0.087924
0.38045 0.1384 0.06724 0.036713 0.99876 0.03359
0.38083 0.13816 0.070611 0.070292 0.99658 -0.04353
0.38093 0.13781 0.069491 0.088194 0.996 -0.014549
0.38434 0.13679 0.073377 0.10842 0.94673 0.30321
0.38437 0.13784 0.070372 0.069278 0.99724 -0.026556
0.38104 0.13794 0.07289 0.092322 0.93336 0.34687
0.38459 0.13776 0.071927 0.09427 0.9636 0.25017
0.38832 0.13684 0.07378 0.038766 0.9974 0.060787
0.38857 0.13742 0.064875 0.14989 0.98851 0.019296
0.38481 0.13799 0.061351 0.142 0.98739 -0.069984
0.38456 0.13781 0.064895 0.1028 0.98886 0.10768
0.39297 0.13647 0.068126 0.11951 0.99281 0.006613
0.39355 0.13676 0.065254 0.19248 0.98093 -0.027153
0.39691 0.13627 0.067258 0.12288 0.98838 -0.089436
0.39745 0.13629 0.071233 0.13765 0.98997 0.031851
0.397 0.13594 0.073737 0.13029 0.99141 0.011618
0.3929 0.13682 0.071554 0.11636 0.99249 0.037724
0.42953 0.13425 0.071386 0.052158 0.99812 0.032237
0.4375 0.13373 0.07295 -0.046483 0.99673 -0.066153
0.43395 0.13396 0.068261 0.10997 0.99328 -0.035959
0.42933 0.13411 0.06499 0.057247 0.9951 -0.080661
0.42519 0.13429 0.068177 -0.029229 0.99884 -0.038306
0.44123 0.13351 0.066373 -0.005866 0.99678 -0.079944
0.44945 0.13348 0.064908 -0.008685 0.99809 -0.061224
0.45384 0.13351 0.066888 0.04975 0.99433 -0.093951
0.46174 0.13354 0.072674 0.11157 0.99328 0.030666
0.45782 0.1335 0.069731 0.051353 0.99265 -0.10959
0.44514 0.13361 0.069853 0.003615 0.99611 -0.08806
0.4251 0.13399 0.072857 4.1e-05 0.9999 0.014149
0.41238 0.13494 0.070017 0.033193 0.99942 -0.008156
0.40085 0.13588 0.067471 0.17774 0.98139 -0.072664
0.40421 0.13509 0.07419 0.082119 0.99648 0.016642
0.4045 0.13459 0.069829 0.13434 0.99091 0.007656
0.40509 0.13426 0.065404 0.060275 0.9901 -0.12675
0.40136 0.13532 0.064703 0.18773 0.97728 -0.098354
0.39746 0.13573 0.065732 0.15866 0.9722 -0.17219
0.4051 0.13469 0.067106 0.095342 0.99149 -0.088626
0.41716 0.13442 0.065652 0.10662 0.99162 -0.073003
0.42145 0.13385 0.066526 0.024726 0.99841 -0.050665
0.40474 0.13383 0.060017 0.14914 0.96756 -0.20393
0.4012 0.13528 0.06104 0.18323 0.94893 -0.25681
0.39759 0.13567 0.060477 0.25517 0.9579 -0.13156
0.39734 0.13551 0.062261 0.16812 0.98576 0.003265
0.40117 0.13426 0.059925 0.18991 0.8619 -0.47017
0.39737 0.13446 0.047452 0.30098 0.93683 -0.1782
0.39747 0.13516 0.050852 0.31424 0.94794 -0.051567
0.39296 0.13571 0.044927 0.22922 0.96244 -0.14552
0.40062 0.13399 0.054967 0.3705 0.91586 -0.15471
0.40115 0.13391 0.058546 0.29177 0.95118 -0.10061
0.40129 0.13374 0.049483 0.25755 0.9634 -0.074329
0.41298 0.1335 0.055853 -0.007107 0.9876 -0.15682
0.40876 0.13419 0.060938 -0.087989 0.98583 -0.14281
0.40545 0.13354 0.060989 0.0887 0.99391 -0.065399
0.40873 0.13477 0.064304 -0.067753 0.99151 -0.11096
0.40508 0.13424 0.062841 0.15861 0.97711 -0.14175
0.41329 0.13445 0.062534 0.047668 0.99252 -0.11235
0.41799 0.13387 0.061149 0.097906 0.98609 -0.13431
0.42506 0.13411 0.062497 0.016459 0.99905 -0.040435
0.42521 0.13394 0.064601 -0.034768 0.99937 -0.006667
0.4172 0.13368 0.058744 0.14359 0.98241 -0.1194
0.42586 0.13365 0.058071 0.056564 0.97741 -0.20363
0.42129 0.13354 0.058048 -0.006477 0.98855 -0.15077
0.48237 0.13164 0.06363 0.055142 0.99248 -0.10927
0.48629 0.13085 0.059024 0.036093 0.98259 -0.18226
0.47812 0.13117 0.05931 0.071882 0.97829 -0.19436
0.46596 0.1323 0.061396 0.030947 0.9839 -0.17604
0.46987 0.13263 0.064792 0.051298 0.99272 -0.10902
0.46212 0.13291 0.065686 -0.0007 0.99406 -0.10883
0.47392 0.13233 0.066145 0.055547 0.99717 -0.050628
0.47799 0.13225 0.066346 0.086405 0.99213 -0.09057
0.49547 0.13095 0.068362 0.031497 0.99412 -0.10361
0.48958 0.13153 0.067443 0.067974 0.99321 -0.094379
0.48249 0.13181 0.069266 0.079201 0.9911 -0.10701
0.47368 0.13296 0.071097 0.055711 0.9974 -0.045771
0.4659 0.13342 0.070652 0.029365 0.99804 -0.055219
0.46183 0.13322 0.071116 0.023049 0.99147 -0.12831
0.46216 0.13287 0.073553 0.20044 0.97036 0.13502
0.48621 0.1323 0.07281 0.062671 0.99642 -0.056684
0.5 0.13164 0.074175 -0.030577 0.99926 -0.023169
0.49827 0.13156 0.073383 -0.009781 0.99814 -0.060137
0.4938 0.13165 0.072985 0.058434 0.99707 -0.049409
0.48121 0.13229 0.071141 0.084007 0.99268 -0.086744
0.5 0.1315 0.071825 -0.036601 0.99594 -0.082251
0.5 0.13126 0.069354 -0.030348 0.98495 -0.17018
0.48216 0.13062 0.057506 0.026924 0.97509 -0.22017
0.47022 0.13069 0.054989 0.054436 0.95937 -0.27687
0.49344 0.13029 0.057665 0.049558 0.98495 -0.16556
0.5 0.13045 0.064121 0.042459 0.99634 -0.074205
0.5 0.13073 0.067246 0.006518 0.98563 -0.16878
0.5 0.13018 0.059405 0.048793 0.99772 -0.046614
0.5 0.13013 0.057545 0.022884 0.98853 -0.14927
0.49817 0.13018 0.05763 0.029193 0.98708 -0.15754
0.48545 0.12982 0.054834 0.023277 0.95966 -0.2802
0.48961 0.12981 0.055045 0.023621 0.95951 -0.28068
0.5 0.12957 0.055552 0.022959 0.96406 -0.26471
0.49936 0.12698 0.046618 0.007348 0.95423 -0.29897
0.49442 0.12678 0.045955 -0.007562 0.94654 -0.32251
0.5 0.1265 0.045163 -0.001767 0.94947 -0.31385
0.5 0.12708 0.046993 0.01164 0.96039 -0.27843
0.48986 0.12752 0.048208 0.003759 0.94566 -0.32513
0.49449 0.12889 0.052502 0.022393 0.95907 -0.28227
0.47845 0.1297 0.053874 0.047268 0.95425 -0.29524
0.4669 0.12955 0.050856 0.05449 0.95019 -0.30686
0.46256 0.12894 0.048459 0.042558 0.95027 -0.30851
0.47684 0.12729 0.046593 0.074807 0.94237 -0.32611
0.48248 0.12708 0.046855 0.021675 0.93964 -0.34148
0.48571 0.12855 0.051139 0.016785 0.9451 -0.32633
0.45018 0.12937 0.048127 0.067964 0.95556 -0.28686
0.44101 0.12862 0.043948 0.091627 0.95287 -0.28921
0.43774 0.12998 0.047339 0.17887 0.94314 -0.28016
0.45778 0.12966 0.050037 0.041321 0.95262 -0.30133
0.44194 0.13043 0.050572 0.068862 0.97003 -0.23304
0.4093 0.13241 0.048867 0.052279 0.988 -0.14532
0.40502 0.1322 0.046172 0.11816 0.96496 -0.23428
0.4047 0.13157 0.043628 0.075559 0.97133 -0.2254
0.4086 0.13155 0.043618 0.069104 0.97644 -0.20441
0.4167 0.13096 0.044075 0.062667 0.97342 -0.22028
0.42833 0.13098 0.046305 0.051087 0.97795 -0.20249
0.43706 0.13169 0.053459 0.16046 0.97488 -0.15447
0.44921 0.13112 0.053101 0.039865 0.95837 -0.28274
0.46181 0.13087 0.05448 0.03962 0.96519 -0.25854
0.4536 0.13095 0.05363 0.051638 0.96035 -0.27398
0.43816 0.13157 0.056622 0.1332 0.97554 -0.17488
0.40461 0.13236 0.054176 0.1326 0.98886 -0.067614
0.44846 0.13248 0.058472 0.000949 0.97989 -0.19953
0.4584 0.13256 0.061827 0.048745 0.99025 -0.1305
0.43024 0.13179 0.051514 0.058969 0.96147 -0.26852
0.42573 0.1323 0.05384 0.007404 0.97019 -0.24223
0.42104 0.13243 0.051863 0.052382 0.98161 -0.18356
0.43678 0.1329 0.060389 0.10948 0.98688 -0.11864
0.44116 0.13292 0.0624 -0.004786 0.98787 -0.15518
0.45796 0.13289 0.06706 0.050088 0.98897 -0.1394
0.44527 0.13323 0.06421 -0.011271 0.99608 -0.087743
0.43673 0.13294 0.064899 0.044321 0.99023 -0.13222
0.43389 0.13344 0.07272 0.060899 0.99812 0.006346
0.43767 0.13347 0.068424 0.058724 0.99814 -0.016327
0.43796 0.13331 0.071011 0.017283 0.99895 -0.042427
0.44938 0.13335 0.068169 -0.026067 0.99714 -0.070933
0.43742 0.13333 0.066716 0.022501 0.98847 -0.1497
0.42982 0.13344 0.061422 0.10097 0.99225 -0.07236
0.41797 0.13348 0.059814 0.15919 0.97819 -0.13341
0.41731 0.1331 0.055524 0.042862 0.98614 -0.16028
0.40819 0.13266 0.055254 -0.033417 0.98834 -0.14853
0.43308 0.13294 0.056216 0.11999 0.97556 -0.18408
0.42913 0.13297 0.057187 -0.000603 0.96794 -0.25118
0.42941 0.13343 0.058292 0.04713 0.97835 -0.20151
0.41647 0.13284 0.053209 0.053676 0.98386 -0.17067
0.40492 0.13277 0.048685 0.16897 0.97273 -0.15887
0.42948 0.13265 0.053259 -0.014595 0.96513 -0.26138
0.4011 0.13262 0.04523 0.26534 0.9261 -0.26821
0.40154 0.13323 0.054054 0.37926 0.90567 -0.18952
0.40145 0.13325 0.047314 0.2274 0.94182 -0.24751
0.36825 0.14376 0.045208 0.36623 0.93042 -0.014068
0.36861 0.14357 0.048127 0.33705 0.94015 0.050158
0.36444 0.1446 0.048685 0.35295 0.92972 0.10508
0.36005 0.14677 0.047772 0.4885 0.87037 0.061811
0.356 0.14955 0.046456 0.48398 0.87315 0.058068
0.35615 0.14916 0.050264 0.45043 0.87382 0.18319
0.36041 0.14673 0.050819 0.47406 0.87543 0.094261
0.36473 0.14396 0.051672 0.39249 0.91117 0.12542
0.36907 0.14211 0.051722 0.36859 0.89907 0.23625
0.36877 0.14263 0.05442 0.38072 0.92454 -0.016792
0.36826 0.14351 0.050182 0.32151 0.90352 0.28333
0.3605 0.14583 0.056038 0.42725 0.8923 0.14577
0.35647 0.14776 0.054691 0.4156 0.90129 0.12227
0.35644 0.14635 0.062432 0.42475 0.87708 0.2243
0.35669 0.14747 0.059042 0.46635 0.8708 0.15564
0.36046 0.14513 0.058345 0.40446 0.90379 0.1399
0.36067 0.14287 0.069839 0.27882 0.92975 0.24045
0.3602 0.14245 0.073716 0.26675 0.92871 0.25756
0.35648 0.14361 0.07216 0.35881 0.90577 0.22545
0.36043 0.14513 0.06199 0.34678 0.92938 0.12649
0.36422 0.14417 0.057966 0.3232 0.94359 0.071923
0.3681 0.14252 0.06075 0.4015 0.90865 0.11466
0.37286 0.13984 0.060132 0.37311 0.91871 0.12945
0.37254 0.14002 0.067797 0.3223 0.94137 0.099754
0.36466 0.14134 0.072851 0.28704 0.92955 0.23141
0.36803 0.1414 0.068009 0.33501 0.92361 0.18629
0.36913 0.14051 0.069141 0.4582 0.81785 0.34809
0.37702 0.13808 0.072065 0.12809 0.96979 0.20759
0.37257 0.13948 0.069969 0.21825 0.96866 0.11862
0.36922 0.13973 0.070039 0.48839 0.86391 0.12305
0.37667 0.13797 0.065954 0.17448 0.98466 -0.000202
0.3769 0.13836 0.069198 0.16813 0.98564 0.015721
0.37706 0.13897 0.058261 0.19411 0.97711 0.087015
0.37715 0.13869 0.052172 0.27454 0.95547 0.10822
0.37683 0.13913 0.044904 0.44194 0.89558 0.05118
0.37668 0.13922 0.046706 0.39448 0.91185 -0.11366
0.37639 0.13953 0.048671 0.33535 0.9399 0.064273
0.37306 0.14083 0.055107 0.38903 0.92118 0.009065
0.37209 0.14196 0.049499 0.42733 0.87672 0.22078
0.37248 0.14191 0.047309 0.46463 0.88545 0.010131
0.37294 0.14163 0.04452 0.49498 0.86698 -0.057801
0.37295 0.14101 0.050991 0.40362 0.88393 0.23614
0.37264 0.14073 0.052598 0.38722 0.92168 0.023596
0.37239 0.14059 0.058219 0.38999 0.90533 0.16818
0.35259 0.14931 0.060885 0.47245 0.85256 0.22346
0.35269 0.14971 0.051916 0.50126 0.82841 0.24997
0.35232 0.15174 0.04456 0.52259 0.85162 0.040526
0.35274 0.15111 0.045632 0.55393 0.83007 0.064367
0.35226 0.14994 0.057394 0.51669 0.85142 0.090102
0.34432 0.15349 0.059891 0.52799 0.84635 0.070074
0.34865 0.15311 0.053003 0.53768 0.82915 0.15302
0.34848 0.15385 0.04886 0.53234 0.83666 0.12892
0.35222 0.15117 0.050191 0.52607 0.80749 0.26686
0.34802 0.15284 0.056618 0.44918 0.86936 0.20603
0.34811 0.1521 0.059525 0.43138 0.88013 0.19818
0.34828 0.14996 0.064421 0.50916 0.82522 0.24448
0.34836 0.149 0.068408 0.4884 0.83761 0.24468
0.35219 0.14627 0.071516 0.44017 0.84176 0.31254
0.34777 0.14753 0.074311 0.43615 0.81293 0.38591
0.34397 0.15099 0.07117 0.46145 0.8172 0.34532
0.34005 0.15247 0.072201 0.56774 0.78025 0.26246
0.34061 0.15314 0.070019 0.49671 0.8196 0.28554
0.34433 0.15232 0.067288 0.47855 0.84111 0.25204
0.3443 0.15357 0.061646 0.5336 0.83249 0.1491
0.34409 0.15333 0.064325 0.48606 0.84306 0.2302
0.3407 0.15373 0.066906 0.49097 0.82841 0.26961
0.3399 0.15857 0.05652 0.58389 0.8002 0.13691
0.34422 0.15398 0.057839 0.52917 0.82023 0.21727
0.34039 0.15714 0.060445 0.63061 0.75027 0.19858
0.34035 0.15512 0.064514 0.5747 0.76068 0.30181
0.33653 0.15635 0.071135 0.61335 0.73515 0.28872
0.32808 0.16267 0.073535 0.56393 0.77894 0.27429
0.33155 0.16263 0.064413 0.55 0.79145 0.26667
0.33587 0.15996 0.062994 0.5959 0.77194 0.22139
0.3362 0.16117 0.05361 0.55604 0.82843 0.067328
0.33574 0.16101 0.055716 0.56542 0.82377 0.041231
0.33569 0.161 0.057862 0.58351 0.80024 0.13836
0.33612 0.16157 0.051239 0.59047 0.78004 0.20707
0.33661 0.16065 0.052374 0.62169 0.77798 0.090847
0.33991 0.15893 0.051805 0.54667 0.83451 0.068866
0.3449 0.15523 0.050814 0.58464 0.78481 0.20556
0.34373 0.15661 0.050659 0.60955 0.77923 0.14573
0.34046 0.15846 0.050046 0.5609 0.8049 0.19375
0.3408 0.15919 0.047622 0.60808 0.77141 0.18752
0.34446 0.15685 0.04602 0.57465 0.81617 0.060444
0.34421 0.15674 0.048757 0.55776 0.80159 0.2153
0.33957 0.16028 0.048181 0.60464 0.75952 0.23988
0.33693 0.16115 0.049931 0.6072 0.75421 0.24994
0.33586 0.16255 0.049183 0.54453 0.79263 0.27427
0.3078 0.18079 0.046723 0.76198 0.64531 -0.054504
0.30794 0.18055 0.045518 0.63888 0.76865 -0.031712
0.31143 0.17859 0.05352 0.57846 0.81543 0.021368
0.30823 0.17991 0.046903 0.72037 0.69018 -0.068681
0.30816 0.1805 0.048113 0.6144 0.77767 -0.13322
0.29943 0.18679 0.057438 0.52611 0.85018 -0.020106
0.30377 0.18402 0.056634 0.57476 0.81718 0.043238
0.30763 0.18127 0.055936 0.61595 0.76723 0.17878
0.30451 0.18316 0.04878 0.53872 0.83928 -0.073428
0.29952 0.18633 0.051122 0.51356 0.85425 -0.080757
0.29477 0.18909 0.050561 0.4778 0.87404 -0.088106
0.27954 0.19644 0.046927 0.41617 0.90023 -0.12804
0.27153 0.20027 0.048634 0.38809 0.9112 -0.13818
0.26853 0.20231 0.054973 0.39223 0.91582 -0.086187
0.26346 0.20428 0.053908 0.38304 0.91843 -0.098862
0.25896 0.20591 0.051145 0.38526 0.91369 -0.12938
0.2877 0.19207 0.0458 0.4587 0.87933 -0.12798
0.28743 0.19286 0.049099 0.46087 0.8814 -0.10357
0.28279 0.1956 0.053543 0.4463 0.89209 -0.070647
0.29554 0.18912 0.056249 0.47833 0.87755 -0.033419
0.29142 0.19107 0.05532 0.46269 0.88571 -0.037844
0.29127 0.19028 0.04532 0.46011 0.87771 -0.13389
0.32068 0.172 0.048875 0.57041 0.81721 0.082491
0.32025 0.17248 0.052067 0.64777 0.76162 0.018183
0.31621 0.17523 0.054489 0.5728 0.81944 0.020539
0.31619 0.17522 0.048266 0.55905 0.82884 -0.022255
0.31153 0.1782 0.045863 0.51516 0.85312 -0.082369
0.32382 0.17055 0.044244 0.55153 0.83407 -0.012157
0.32504 0.16951 0.047785 0.50744 0.85227 0.12702
0.32343 0.16912 0.054657 0.75527 0.6517 0.069608
0.32388 0.16852 0.056955 0.629 0.76619 -0.13152
0.324 0.16877 0.05334 0.7148 0.69915 0.016136
0.32401 0.16883 0.050464 0.57909 0.78682 0.21346
0.33237 0.16401 0.050025 0.53016 0.80368 0.27024
0.33593 0.16272 0.046538 0.53909 0.84103 0.045277
0.33608 0.1627 0.044486 0.55468 0.82985 -0.060601
0.33192 0.16515 0.048307 0.54168 0.82371 0.16762
0.33206 0.16526 0.044215 0.52311 0.85159 -0.03395
0.32439 0.16804 0.051802 0.60447 0.76309 0.2287
0.32453 0.16781 0.05234 0.51092 0.8523 -0.11197
0.32432 0.16778 0.054951 0.59304 0.80038 0.087714
0.32803 0.16696 0.052456 0.45162 0.88186 0.13553
0.33238 0.16345 0.053694 0.59276 0.80537 0.003543
0.33252 0.16353 0.052257 0.54724 0.82842 0.11933
0.33182 0.16443 0.055796 0.60576 0.79564 -0.00309
0.32815 0.16596 0.060991 0.44797 0.88965 0.088564
0.33182 0.1629 0.061351 0.59664 0.78203 0.18012
0.328 0.16602 0.059178 0.41051 0.89983 0.14762
0.32762 0.16676 0.057572 0.457 0.88226 0.11298
0.32488 0.1671 0.060016 0.60178 0.78228 0.16094
0.32397 0.16846 0.062682 0.67593 0.72972 0.10307
0.32354 0.16679 0.069064 0.59993 0.76518 0.23361
0.32437 0.16669 0.065535 0.55141 0.79917 0.23932
0.32781 0.16444 0.06897 0.57572 0.79321 0.19838
0.32792 0.16583 0.063157 0.5376 0.82744 0.16229
0.32481 0.16707 0.061474 0.64243 0.765 -0.045346
0.32406 0.1688 0.059427 0.8132 0.57996 0.04848
0.3241 0.16877 0.058403 0.66594 0.74587 0.013955
0.32039 0.17204 0.059255 0.64258 0.76563 0.029969
0.3199 0.17158 0.064538 0.63194 0.75226 0.18643
0.31694 0.17089 0.074012 0.59781 0.73212 0.32652
0.30463 0.18202 0.066633 0.63034 0.7619 0.14893
0.30759 0.18007 0.060339 0.54245 0.84007 -0.005282
0.30761 0.18033 0.058308 0.58588 0.79684 0.14765
0.31104 0.17862 0.060712 0.4945 0.86762 0.052022
0.31214 0.1757 0.069561 0.5666 0.80547 0.17373
0.31599 0.17296 0.070738 0.59352 0.77319 0.22338
0.27947 0.19757 0.064479 0.45345 0.88991 0.049405
0.27886 0.19787 0.057722 0.4378 0.89833 -0.036455
0.27204 0.20111 0.059303 0.41391 0.90954 -0.037639
0.27538 0.19958 0.063672 0.43036 0.90226 0.026959
0.27134 0.20142 0.065568 0.42733 0.90329 0.038161
0.25527 0.2083 0.069779 0.40024 0.90682 0.13225
0.25877 0.20692 0.068853 0.42156 0.90302 0.082712
0.25946 0.2065 0.063054 0.41016 0.91163 -0.026489
0.26365 0.20484 0.062834 0.37123 0.92852 -0.006285
0.26724 0.20328 0.066649 0.39744 0.91632 0.048958
0.2631 0.20474 0.069282 0.40083 0.9109 0.097922
0.27983 0.19654 0.072155 0.45303 0.87872 0.15037
0.2839 0.19435 0.072096 0.44295 0.88438 0.1472
0.29121 0.18978 0.074022 0.50948 0.83405 0.21164
0.29174 0.191 0.061897 0.46392 0.88548 0.026573
0.28725 0.19353 0.058105 0.47548 0.87954 -0.017919
0.28305 0.19575 0.059552 0.46734 0.88406 -0.00473
0.29633 0.1884 0.06248 0.56517 0.82299 0.057205
0.29978 0.1859 0.066678 0.54983 0.82288 0.14341
0.30395 0.18346 0.062327 0.62888 0.77529 0.058567
0.30409 0.18216 0.069109 0.60817 0.77056 0.1907
0.29566 0.18812 0.067484 0.51377 0.84986 0.11739
0.29555 0.18799 0.070151 0.53105 0.83448 0.14706
0.29936 0.18335 0.077474 0.58728 0.75042 0.30326
0.3034 0.18033 0.077274 0.58116 0.76329 0.28221
0.30341 0.17924 0.079937 0.58387 0.71713 0.38056
0.3 0.17973 0.083993 0.59646 0.71684 0.36108
0.29993 0.18123 0.080437 0.56698 0.74778 0.3455
0.28322 0.19182 0.083266 0.48643 0.81519 0.31441
0.29158 0.18567 0.085216 0.52687 0.7728 0.35383
0.29592 0.18364 0.082917 0.57703 0.74584 0.33281
0.29961 0.18402 0.074392 0.57953 0.78754 0.20961
0.29557 0.18645 0.076506 0.5481 0.79982 0.24469
0.28769 0.18969 0.081507 0.50219 0.81411 0.29161
0.26705 0.20171 0.077372 0.41721 0.89207 0.17362
0.26371 0.20248 0.080959 0.40826 0.88287 0.23208
0.25934 0.20368 0.08383 0.41134 0.87815 0.24423
0.25535 0.2063 0.080988 0.40297 0.89008 0.21301
0.25942 0.20541 0.076689 0.40574 0.90014 0.15853
0.27471 0.19788 0.077828 0.43984 0.87626 0.19678
0.27052 0.1991 0.081717 0.43065 0.87047 0.23837
0.2751 0.1954 0.085864 0.45874 0.82664 0.32592
0.27937 0.19342 0.084986 0.46929 0.81576 0.33809
0.2794 0.19489 0.080276 0.45444 0.85799 0.23946
0.28397 0.19325 0.077087 0.47434 0.85156 0.22326
0.30788 0.1747 0.081797 0.55209 0.74327 0.37783
0.31167 0.17072 0.083336 0.56776 0.72092 0.3974
0.30429 0.17575 0.084847 0.58195 0.73804 0.34152
0.30407 0.17699 0.081977 0.58448 0.71763 0.37867
0.30724 0.17697 0.077716 0.58584 0.73709 0.33688
0.3121 0.17398 0.076028 0.59586 0.73826 0.3161
0.31617 0.16998 0.07631 0.55894 0.75158 0.3503
0.31583 0.16896 0.080449 0.58489 0.74764 0.31455
0.31593 0.16554 0.086479 0.58149 0.70785 0.40103
0.31214 0.16823 0.086389 0.56698 0.71573 0.40775
0.3198 0.16742 0.077433 0.57717 0.75164 0.31922
0.33207 0.15825 0.076255 0.62483 0.75219 0.2093
0.33635 0.15527 0.075189 0.61381 0.75449 0.23234
0.33207 0.15668 0.07981 0.5642 0.72682 0.39168
0.32806 0.15982 0.078703 0.55131 0.74974 0.36598
0.32391 0.16335 0.078101 0.58059 0.74521 0.32798
0.31967 0.16442 0.083173 0.58772 0.69681 0.41116
0.324 0.16068 0.083964 0.54954 0.73697 0.39354
0.32405 0.15884 0.087305 0.53634 0.71671 0.44573
0.32836 0.15555 0.086171 0.66446 0.64294 0.38095
0.32763 0.15575 0.087384 0.60672 0.66137 0.44101
0.32803 0.15704 0.084658 0.60671 0.68246 0.40762
0.32404 0.15715 0.089284 0.55839 0.64432 0.52254
0.32798 0.15302 0.09072 0.57016 0.71194 0.40994
0.32404 0.15594 0.09086 0.55629 0.69063 0.46215
0.32007 0.15727 0.093871 0.55647 0.72838 0.39975
0.31582 0.16124 0.093299 0.58429 0.67681 0.44782
0.3114 0.16411 0.095761 0.58269 0.69596 0.41965
0.30785 0.16347 0.10004 0.5679 0.70118 0.43109
0.31209 0.1609 0.099091 0.57976 0.68635 0.43909
0.32405 0.1536 0.095397 0.5691 0.71712 0.40232
0.32007 0.15599 0.097282 0.54279 0.74204 0.39338
0.31617 0.15735 0.099296 0.55084 0.70942 0.43966
0.3122 0.1652 0.091612 0.56603 0.70526 0.42688
0.31606 0.16412 0.089298 0.57916 0.7 0.41783
0.30784 0.17172 0.087467 0.59389 0.70554 0.38666
0.31205 0.1673 0.088885 0.57374 0.71594 0.39781
0.30742 0.16644 0.096981 0.56774 0.68206 0.46093
0.29994 0.17197 0.097328 0.56505 0.71588 0.41018
0.29934 0.17457 0.094484 0.5873 0.68579 0.42986
0.30284 0.17464 0.089666 0.5708 0.71094 0.41079
0.30363 0.17142 0.093207 0.5859 0.6859 0.43159
0.2995 0.17117 0.09969 0.56031 0.72137 0.40705
0.30371 0.16634 0.10118 0.58825 0.68361 0.43201
0.27606 0.19032 0.094723 0.47459 0.80827 0.34852
0.27997 0.18999 0.091742 0.43758 0.81504 0.37979
0.27967 0.19135 0.088593 0.45641 0.80688 0.37501
0.27598 0.19174 0.091952 0.46266 0.80012 0.38177
0.27155 0.19353 0.09468 0.492 0.79602 0.35254
0.25871 0.19801 0.099794 0.41337 0.82875 0.37722
0.26294 0.19838 0.094226 0.40133 0.84418 0.35539
0.25907 0.20209 0.089606 0.4079 0.85584 0.31804
0.26709 0.19612 0.094539 0.444 0.8228 0.35477
0.26681 0.19416 0.09909 0.44431 0.79841 0.40638
0.27117 0.19142 0.099709 0.44796 0.78642 0.42528
0.27882 0.18554 0.10178 0.48978 0.72221 0.48839
0.27965 0.18633 0.099471 0.51961 0.75905 0.39223
0.28307 0.18283 0.10127 0.51323 0.73798 0.43815
0.28678 0.18696 0.089337 0.49751 0.78684 0.3652
0.28404 0.18587 0.094747 0.50199 0.74757 0.4349
0.27976 0.18727 0.097287 0.49209 0.78241 0.38168
0.29492 0.17786 0.095312 0.57383 0.70578 0.41545
0.29608 0.17847 0.091409 0.5821 0.7163 0.3848
0.29628 0.17963 0.089445 0.57851 0.68866 0.43712
0.29583 0.17354 0.10008 0.56912 0.71398 0.40785
0.29135 0.17686 0.10081 0.56621 0.71412 0.41162
0.28763 0.18099 0.098614 0.52519 0.73694 0.42556
0.31993 0.15287 0.10068 0.53334 0.68616 0.4947
0.32402 0.15082 0.099634 0.57099 0.6596 0.48878
0.33215 0.14639 0.096575 0.53968 0.72253 0.43208
0.32838 0.14718 0.099616 0.52043 0.75121 0.406
0.32829 0.14815 0.0973 0.54953 0.70385 0.45013
0.33178 0.15039 0.090024 0.61849 0.66927 0.41176
0.3323 0.1483 0.092004 0.62229 0.69034 0.36902
0.33607 0.14513 0.092867 0.52332 0.76152 0.38239
0.33165 0.14804 0.094227 0.57823 0.70921 0.40334
0.32778 0.15075 0.095316 0.58305 0.64435 0.49484
0.32847 0.15137 0.093359 0.59949 0.7003 0.38755
0.33164 0.15277 0.085919 0.59434 0.67693 0.43419
0.33584 0.14782 0.087702 0.53741 0.72031 0.43857
0.34393 0.14886 0.074735 0.49379 0.79172 0.35966
0.34046 0.1517 0.074604 0.58201 0.77001 0.26142
0.33612 0.15141 0.083038 0.5741 0.68691 0.4456
0.34445 0.14693 0.080167 0.51733 0.7926 0.32274
0.34458 0.14746 0.0776 0.5105 0.80783 0.29461
0.34872 0.14506 0.077187 0.44181 0.81282 0.37964
0.34424 0.14413 0.086081 0.46544 0.80896 0.3591
0.34023 0.14726 0.08397 0.48398 0.77201 0.41202
0.34014 0.14546 0.088246 0.44933 0.78074 0.43422
0.34048 0.14317 0.090855 0.46483 0.7635 0.44833
0.344 0.14334 0.088051 0.436 0.75077 0.49623
0.35571 0.14329 0.075191 0.3055 0.90599 0.293
0.35268 0.14247 0.07938 0.26966 0.9082 0.32009
0.34846 0.14277 0.082768 0.40819 0.85861 0.31011
0.34826 0.14156 0.087009 0.37627 0.85713 0.35179
0.35245 0.14182 0.082489 0.26299 0.9209 0.28773
0.3565 0.1394 0.08668 0.26632 0.93322 0.24122
0.35229 0.13933 0.088352 0.24679 0.9208 0.30204
0.35196 0.13861 0.091855 0.22762 0.91829 0.32394
0.34453 0.14145 0.089978 0.37973 0.82601 0.41656
0.34013 0.1392 0.1 0.42906 0.84205 0.32688
0.33622 0.14076 0.10099 0.46155 0.81003 0.36168
0.33996 0.13836 0.10189 0.42646 0.76577 0.48138
0.33195 0.14392 0.10093 0.57206 0.7138 0.40403
0.33655 0.14227 0.096468 0.45314 0.72702 0.51585
0.34015 0.14219 0.094389 0.41936 0.80211 0.42515
0.34491 0.13914 0.095324 0.30388 0.84617 0.43778
0.34031 0.14026 0.097399 0.38689 0.80012 0.45838
0.34397 0.13748 0.098098 0.33656 0.85161 0.40185
0.34397 0.13642 0.10183 0.31751 0.84013 0.43974
0.3481 0.13626 0.099916 0.18083 0.88997 0.41863
0.35271 0.13596 0.09738 0.16958 0.91901 0.35591
0.36885 0.13382 0.099236 0.1747 0.93206 0.31739
0.37223 0.13179 0.10132 0.1404 0.94244 0.30346
0.36132 0.13387 0.099994 0.11626 0.94015 0.32033
0.36007 0.13546 0.09714 0.14973 0.92414 0.35148
0.37239 0.1339 0.095676 0.064346 0.97876 0.19466
0.37261 0.13346 0.097586 0.093846 0.95501 0.28132
0.37634 0.13342 0.097989 0.005802 0.95544 0.29514
0.37276 0.13298 0.098832 0.067342 0.90424 0.42167
0.38044 0.13225 0.10134 0.072438 0.94872 0.30772
0.37585 0.13237 0.10046 -0.056919 0.93502 0.35001
0.37245 0.13218 0.10023 0.094688 0.89495 0.436
0.37655 0.13453 0.09326 -0.020884 0.97832 0.20605
0.36507 0.13507 0.094957 0.15864 0.942 0.29574
0.37243 0.1344 0.09283 0.068165 0.95509 0.28837
0.37639 0.1345 0.089878 0.085393 0.99009 0.11145
0.38068 0.13535 0.0908 0.004961 0.97994 0.19924
0.38065 0.1359 0.080101 -0.020616 0.99771 0.064469
0.37609 0.13567 0.085329 0.13801 0.9603 0.24245
0.37603 0.13591 0.08261 0.20632 0.96585 0.15671
0.37293 0.13558 0.090325 0.20475 0.95219 0.22673
0.37341 0.13563 0.086771 0.37244 0.90985 0.18289
0.37666 0.13539 0.087376 -0.024927 0.9872 0.15755
0.37705 0.1365 0.079815 0.14607 0.96766 0.20567
0.3729 0.13766 0.080632 0.30415 0.93079 0.20277
0.37279 0.13861 0.077346 0.26641 0.94882 0.16961
0.37708 0.13676 0.075836 0.091913 0.98643 0.13606
0.38074 0.13627 0.079213 -0.051615 0.87231 0.48621
0.36861 0.13941 0.074498 0.19498 0.95716 0.21407
0.36442 0.14024 0.076626 0.21146 0.94578 0.24655
0.35663 0.14239 0.077412 0.28739 0.89211 0.34865
0.35652 0.14093 0.080794 0.32299 0.90061 0.29083
0.36038 0.14004 0.078744 0.22622 0.91766 0.3267
0.36412 0.13952 0.080704 0.073189 0.96292 0.25968
0.37251 0.13762 0.082384 0.31565 0.93806 0.14287
0.37249 0.1373 0.083961 0.28875 0.93577 0.20236
0.38039 0.13668 0.082989 -0.009196 0.99862 0.051648
0.36426 0.13808 0.084912 0.061909 0.97283 0.22311
0.36871 0.13857 0.081253 0.1761 0.96585 0.19008
0.36038 0.1387 0.083131 0.19163 0.93638 0.29405
0.36044 0.13806 0.085038 0.19144 0.96662 0.17027
0.36055 0.13797 0.087137 0.14849 0.97977 0.13414
0.35975 0.13679 0.092869 0.15717 0.941 0.2997
0.37279 0.13658 0.086139 0.41409 0.85185 0.32073
0.36899 0.13692 0.088374 0.17139 0.9453 0.27755
0.3642 0.13727 0.089824 0.11227 0.96071 0.25383
0.38465 0.13242 0.098414 0.18778 0.95916 0.21155
0.38548 0.1324 0.096563 0.14552 0.93351 0.3277
0.40884 0.13159 0.095594 0.012293 0.95399 0.29957
0.39658 0.13159 0.097594 0.007448 0.95027 0.31135
0.40096 0.13221 0.09533 0.082011 0.95767 0.27595
0.45368 0.13185 0.091929 0.027338 0.99261 0.11821
0.45804 0.13185 0.093627 -0.022439 0.98776 0.15435
0.44188 0.13183 0.093355 -0.060771 0.98332 0.17144
0.40482 0.13161 0.094562 0.068425 0.96554 0.25111
0.42556 0.13165 0.093227 0.029922 0.96699 0.25305
0.42153 0.13174 0.092889 0.028788 0.97488 0.22088
0.44449 0.13223 0.088587 -0.061339 0.99155 0.11434
0.44566 0.13243 0.090247 -0.078541 0.99296 0.088643
0.42871 0.13224 0.087917 -0.059967 0.97953 0.19217
0.42166 0.13251 0.087936 0.053706 0.99636 0.06626
0.42114 0.13233 0.086883 -0.013521 0.99884 0.046186
0.42508 0.13189 0.087833 0.041635 0.97864 0.20133
0.42531 0.13212 0.089383 0.020054 0.9994 0.028175
0.45388 0.13195 0.089327 0.03634 0.98975 0.13811
0.45746 0.13205 0.090587 -0.047561 0.99323 0.10595
0.43737 0.13178 0.090594 -0.005494 0.97716 0.21244
0.42981 0.13201 0.090902 0.001551 0.97955 0.20118
0.4048 0.13119 0.097086 0.089605 0.95582 0.27996
0.45402 0.13092 0.097294 -0.023428 0.971 0.23793
0.44927 0.13141 0.095637 0.004268 0.97003 0.24295
0.43678 0.131 0.09494 -0.037564 0.97072 0.23727
0.4135 0.13136 0.09539 0.062828 0.96243 0.26416
0.41775 0.1309 0.095954 0.042719 0.96229 0.26866
0.4223 0.13039 0.096899 0.040273 0.95631 0.28956
0.42937 0.13052 0.095403 -0.009405 0.96298 0.26942
0.46142 0.13075 0.098194 0.013607 0.96392 0.26586
0.44555 0.13045 0.098367 0.002775 0.95839 0.28544
0.43345 0.13037 0.098707 0.010678 0.96602 0.25825
0.40538 0.13019 0.099417 0.13854 0.9424 0.30445
0.39288 0.13036 0.10091 0.061982 0.93413 0.35151
0.40514 0.12994 0.10098 0.1413 0.93317 0.3305
0.38885 0.13124 0.099974 0.14672 0.9516 0.27007
0.4014 0.13078 0.09947 0.082508 0.93556 0.3434
0.39262 0.13092 0.098817 0.062862 0.94057 0.33374
0.44117 0.13034 0.098972 -0.069387 0.95641 0.28365
0.43739 0.12949 0.10046 -0.011228 0.96261 0.27066
0.42123 0.12955 0.10057 0.033348 0.94546 0.32404
0.4138 0.12946 0.10159 0.015217 0.93467 0.3552
0.44977 0.1294 0.10154 -0.021946 0.95726 0.28839
0.42877 0.12913 0.10081 -0.019683 0.94602 0.3235
0.48597 0.13047 0.099149 0.006274 0.97619 0.21682
0.47036 0.12992 0.10169 -0.001846 0.97373 0.22771
0.4779 0.13078 0.097207 0.050599 0.9838 0.172
0.46637 0.13061 0.096957 0.028451 0.9742 0.22391
0.48228 0.13065 0.096195 -0.03672 0.99181 0.12231
0.49875 0.13068 0.094959 0.059343 0.99248 0.10709
0.5 0.13051 0.095544 0.12222 0.99229 0.020411
0.49013 0.13052 0.096322 0.066924 0.98778 0.14078
0.5 0.12959 0.10046 -0.021898 0.98461 0.17339
0.5 0.13016 0.097668 -0.004689 0.982 0.18881
0.5 0.13045 0.095079 0.17102 0.98375 0.054749
0.49003 0.13082 0.091714 0.024004 0.99416 0.10522
0.48206 0.13083 0.093056 -0.002861 0.99372 0.11181
0.4978 0.1309 0.084498 -0.022721 0.99847 0.050426
0.49799 0.13109 0.088042 0.042749 0.99883 0.022717
0.5 0.13093 0.089997 0.010646 0.99713 0.075005
0.5 0.13156 0.081997 -0.11088 0.98997 0.087502
0.49405 0.13143 0.08484 0.10817 0.99355 0.033899
0.4938 0.13154 0.08824 0.034686 0.99758 0.060279
0.4735 0.13151 0.094144 0.009259 0.98496 0.17252
0.48606 0.1314 0.093104 0.010762 0.99567 0.09238
0.49423 0.13121 0.091975 0.004889 0.99284 0.11938
0.5 0.13162 0.07929 -0.013981 0.99969 0.020625
0.49418 0.13181 0.081826 0.084693 0.99506 0.051873
0.49065 0.13169 0.078509 0.063855 0.99764 -0.025227
0.4981 0.13159 0.079211 -0.007537 0.99965 0.025523
0.5 0.13165 0.077375 -0.026361 0.99963 0.00695
0.48627 0.13219 0.078769 0.051431 0.99676 0.061821
0.48197 0.13253 0.077212 0.043711 0.99823 0.040427
0.47418 0.13248 0.078145 0.068156 0.98969 0.12597
0.47385 0.13219 0.08088 0.078617 0.9969 0.002173
0.47805 0.13223 0.081735 0.02047 0.99978 -0.00508
0.48235 0.13209 0.080819 0.062581 0.99591 0.065145
0.49024 0.13201 0.082202 0.026039 0.999 0.036322
0.49002 0.1318 0.08625 0.015235 0.99773 0.06559
0.48607 0.13158 0.082933 0.024004 0.99879 0.043025
0.47774 0.1319 0.085532 0.051893 0.99106 0.12292
0.47368 0.13236 0.08782 0.043923 0.99437 0.096388
0.47802 0.13243 0.083375 0.038265 0.99742 0.060675
0.46588 0.13253 0.088718 0.043506 0.99075 0.12855
0.46145 0.13248 0.088542 -0.008148 0.99242 0.12266
0.46501 0.1316 0.094309 0.041912 0.97534 0.2167
0.47822 0.13175 0.090471 0.061318 0.99165 0.11347
0.46948 0.13182 0.09217 0.028254 0.98608 0.16384
0.46976 0.13212 0.088009 0.037241 0.99019 0.1347
0.44928 0.13282 0.088833 0.000491 0.99177 0.12803
0.44488 0.13262 0.08651 -0.022027 0.98535 0.16912
0.4698 0.13284 0.08438 0.062413 0.9952 0.07543
0.45771 0.13294 0.085569 -0.010799 0.99802 0.062002
0.43803 0.13328 0.08574 -0.008759 0.99522 0.097274
0.42927 0.1331 0.084801 0.004141 0.99511 0.098686
0.42505 0.13293 0.084603 -0.026285 0.99752 0.065307
0.43783 0.13303 0.084011 -0.061894 0.99748 -0.034533
0.43417 0.1329 0.084169 -0.029942 0.99949 -0.011073
0.42487 0.13287 0.086282 -0.028667 0.97331 0.22771
0.43327 0.13273 0.087859 -0.033304 0.98475 0.17075
0.39661 0.13256 0.093663 0.047739 0.95722 0.28541
0.40454 0.13296 0.090832 0.089122 0.97003 0.22605
0.38118 0.1336 0.095559 0.10287 0.9479 0.3015
0.38541 0.13343 0.095021 0.097536 0.89912 0.42669
0.39212 0.13287 0.094606 0.099911 0.92981 0.35421
0.41262 0.13287 0.089673 0.052328 0.98305 0.17572
0.40484 0.13319 0.088277 0.092361 0.97802 0.18693
0.4086 0.13324 0.088528 0.045052 0.98631 0.15864
0.41268 0.13304 0.087462 0.026212 0.98797 0.15243
0.42092 0.1329 0.084469 0.042815 0.98664 0.15716
0.4172 0.13271 0.089151 0.063266 0.98535 0.15837
0.44101 0.13313 0.08136 -0.024439 0.99332 0.11274
0.44151 0.13332 0.0831 -0.037951 0.99877 0.031828
0.42513 0.13318 0.082039 0.020768 0.99035 0.13705
0.43767 0.13315 0.082099 -0.051225 0.99603 0.072855
0.43392 0.13278 0.081054 -0.03581 0.99752 0.060547
0.43712 0.13318 0.080102 -0.31063 0.94092 0.13483
0.42914 0.13339 0.07999 0.046901 0.99065 0.12815
0.43704 0.1334 0.076491 -0.035544 0.99348 0.10832
0.43737 0.13355 0.079498 -0.26654 0.96383 -0.000602
0.43759 0.13348 0.080571 -0.17723 0.97892 0.10149
0.43731 0.13298 0.078293 -0.18041 0.97949 -0.089778
0.46945 0.13277 0.074429 0.055101 0.9984 0.012693
0.47351 0.13306 0.075027 0.034556 0.99856 0.041012
0.47755 0.13275 0.075315 0.051457 0.99793 0.038601
0.47444 0.13253 0.083616 0.058844 0.99826 -0.003061
0.47005 0.13309 0.078558 0.091769 0.99566 0.015656
0.46198 0.133 0.082793 -0.019298 0.99822 0.05645
0.45408 0.13342 0.080387 0.009714 0.99706 0.076069
0.45777 0.13327 0.081786 0.05958 0.98908 0.13477
0.4659 0.13341 0.079479 -0.02677 0.99951 -0.016095
0.46575 0.13313 0.076853 0.031611 0.99917 0.025822
0.46195 0.13345 0.075325 0.18235 0.98306 0.018207
0.44992 0.13356 0.078879 0.015316 0.99797 0.061835
0.44538 0.13378 0.07714 0.02235 0.99964 0.01478
0.45749 0.13369 0.077415 0.04507 0.99763 0.051988
0.44496 0.13365 0.080082 -0.013284 0.99603 0.087975
0.44084 0.13384 0.0787 -0.072489 0.99531 0.063979
0.41683 0.1337 0.079768 0.055112 0.99121 0.12029
0.4089 0.1349 0.077259 0.04973 0.99609 0.073072
0.41284 0.13405 0.079243 0.09808 0.99227 0.076017
0.41331 0.13444 0.076921 0.076492 0.98807 0.1337
0.44107 0.13389 0.074638 -0.026322 0.99891 -0.038559
0.42513 0.13413 0.076382 0.034997 0.99544 0.088782
0.41787 0.13435 0.075845 0.03549 0.997 0.068837
0.39298 0.13664 0.075678 0.077538 0.99412 -0.07558
0.39728 0.13626 0.076051 0.13764 0.98995 0.032406
0.38435 0.1369 0.074689 0.079867 0.97157 -0.22289
0.38468 0.13734 0.075789 0.067567 0.99604 -0.057818
0.38107 0.13763 0.075335 -0.012473 0.99574 -0.091391
0.38084 0.13734 0.077755 -0.06214 0.95887 0.27697
0.38901 0.13684 0.076864 0.055225 0.99666 0.0601
0.38435 0.13663 0.080383 -0.033094 0.96839 0.24722
0.39278 0.13602 0.080647 0.099355 0.97146 0.21539
0.39297 0.13611 0.079001 0.11296 0.97846 0.17277
0.3931 0.13686 0.076891 0.075666 0.99398 0.079214
0.39262 0.13489 0.083614 0.076811 0.97594 0.20405
0.39319 0.13484 0.085525 0.054979 0.99033 0.12738
0.38462 0.13567 0.082292 0.046655 0.98843 0.14432
0.38481 0.13607 0.084686 0.066006 0.99422 0.084705
0.38882 0.13657 0.081022 0.066637 0.98221 0.17557
0.38509 0.13511 0.089241 0.097627 0.96203 0.2549
0.38473 0.13435 0.091233 0.082589 0.97068 0.22576
0.38459 0.13421 0.093091 0.086008 0.96717 0.23914
0.3931 0.13412 0.089961 0.10351 0.9719 0.21142
0.38845 0.13461 0.090844 0.06796 0.96824 0.2406
0.38912 0.13528 0.08581 0.13277 0.97777 0.16231
0.40104 0.13444 0.086214 0.10093 0.9761 0.19246
0.39665 0.13534 0.082923 0.030271 0.98296 0.18132
0.40156 0.13528 0.081071 0.14917 0.9852 0.084419
0.40514 0.13414 0.084813 0.13792 0.9818 0.13058
0.39683 0.13423 0.087045 0.033743 0.98357 0.17732
0.39766 0.13395 0.08969 0.037814 0.97361 0.22506
0.40916 0.13365 0.084463 0.032395 0.98743 0.15467
0.4135 0.13384 0.08443 0.052614 0.98538 0.16205
0.4212 0.1337 0.081156 0.014249 0.98384 0.17846
0.41317 0.13413 0.081656 0.093086 0.99534 0.025173
0.40947 0.13435 0.081795 0.032639 0.98755 0.15387
0.40567 0.13396 0.082508 0.10885 0.98095 0.1609
0.48175 0.12957 0.1024 0.023723 0.97286 0.23016
0.44554 0.12933 0.10222 -0.007938 0.95142 0.30779
0.45439 0.12939 0.10303 -0.015216 0.95488 0.29661
0.46572 0.12967 0.10279 -0.03846 0.96666 0.25318
0.48991 0.12925 0.10352 0.010958 0.97377 0.22728
0.5 0.12801 0.1072 0.071362 0.97065 0.22968
0.49796 0.12806 0.10763 0.025845 0.96748 0.25163
0.48178 0.12809 0.10842 0.028254 0.95875 0.28284
0.43377 0.12812 0.10448 -0.057754 0.92402 0.37795
0.44128 0.12808 0.10525 -0.03792 0.92477 0.37864
0.47457 0.12885 0.10548 0.003125 0.96196 0.27316
0.46155 0.12794 0.10613 -0.03915 0.94881 0.3134
0.44986 0.12797 0.10663 -0.048048 0.93075 0.36247
0.46663 0.12781 0.10886 -0.050313 0.94804 0.31414
0.48606 0.12788 0.10826 0.000236 0.96295 0.26967
0.45724 0.12763 0.10793 0.006957 0.94083 0.33882
0.42954 0.12664 0.10644 -0.022066 0.92797 0.37201
0.40903 0.12679 0.10769 0.007803 0.91978 0.39235
0.41361 0.12666 0.10812 0.019733 0.90944 0.41537
0.44554 0.12781 0.10645 -0.056931 0.90286 0.42615
0.42497 0.12736 0.10586 0.015184 0.9211 0.38902
0.41786 0.12753 0.10502 0.038161 0.90985 0.41318
0.409 0.12842 0.10281 0.045226 0.93196 0.35972
0.39688 0.1294 0.10365 0.010337 0.92154 0.38815
0.40065 0.12645 0.10856 0.082749 0.9033 0.42096
0.39664 0.12785 0.10723 0.038801 0.90325 0.42735
0.40463 0.12793 0.10485 0.054907 0.90792 0.41553
0.39305 0.12919 0.10392 0.091204 0.94623 0.31037
0.38487 0.12826 0.10736 0.15259 0.89419 0.42087
0.37304 0.12928 0.10795 0.026097 0.88231 0.46995
0.36462 0.13036 0.10873 0.064931 0.86777 0.49271
0.38934 0.13017 0.10349 0.1624 0.91542 0.36828
0.39302 0.12929 0.10277 0.091473 0.95107 0.29514
0.3603 0.13291 0.10388 0.038985 0.9289 0.36826
0.35238 0.13441 0.10197 0.15355 0.90353 0.40008
0.36441 0.13254 0.10371 0.075459 0.93232 0.35368
0.3688 0.13202 0.10415 0.17983 0.91646 0.35745
0.38485 0.13079 0.10324 0.16587 0.9114 0.3766
0.37248 0.13043 0.10583 0.088831 0.90721 0.41119
0.37661 0.1305 0.10647 -0.026583 0.91313 0.4068
0.381 0.13051 0.10598 0.1734 0.88726 0.42743
0.35637 0.13191 0.10533 0.079621 0.91332 0.39938
0.36041 0.13103 0.10798 0.031994 0.88954 0.45574
0.35639 0.13066 0.109 0.068178 0.87945 0.47108
0.37673 0.12846 0.11002 -0.022683 0.91081 0.41221
0.36892 0.12923 0.10975 0.12822 0.86329 0.48814
0.38063 0.1287 0.1094 0.10991 0.86236 0.49422
0.3892 0.12749 0.1097 0.10648 0.91598 0.38683
0.39327 0.12692 0.10929 0.096136 0.92814 0.3596
0.38026 0.12701 0.11275 0.13099 0.9272 0.35091
0.38026 0.12736 0.11124 0.123 0.92361 0.36306
0.37691 0.12823 0.11123 0.0326 0.95244 0.30298
0.35628 0.12832 0.1133 0.055601 0.84771 0.52754
0.36482 0.12777 0.11251 0.060296 0.85225 0.51965
0.36418 0.12671 0.11464 0.033267 0.85871 0.51138
