0.21675 0.84863 -0.48253 0.21675 0.84863 -0.48253
0.37175 0.6015 -0.70711 0.37175 0.6015 -0.70711
0.296 0.70231 -0.64741 0.296 0.70231 -0.64741
0.26738 0.65662 -0.70524 0.26738 0.65662 -0.70524
0.33469 0.6535 -0.67891 0.33469 0.6535 -0.67891
0.30521 0.60574 -0.73479 0.30521 0.60574 -0.73479
0.3202 0.63011 -0.70741 0.3202 0.63011 -0.70741
0.28647 0.63157 -0.72046 0.28647 0.63157 -0.72046
0.30123 0.65549 -0.69253 0.30123 0.65549 -0.69253
0.21428 0.68053 -0.70069 0.21428 0.68053 -0.70069
0.19489 0.70347 -0.68349 0.19489 0.70347 -0.68349
0.23351 0.65674 -0.71706 0.23351 0.65674 -0.71706
0.25243 0.63222 -0.73252 0.25243 0.63222 -0.73252
0.26262 0.7036 -0.66029 0.26262 0.7036 -0.66029
0.28191 0.68 -0.67685 0.28191 0.68 -0.67685
0.24829 0.68071 -0.68919 0.24829 0.68071 -0.68919
0.36747 0.65059 -0.66461 0.36747 0.65059 -0.66461
0.38606 0.62465 -0.6788 0.38606 0.62465 -0.6788
0.35343 0.62788 -0.69343 0.35343 0.62788 -0.69343
0.41287 0.66803 -0.61909 0.41287 0.66803 -0.61909
0.38091 0.67235 -0.63471 0.38091 0.67235 -0.63471
0.39371 0.69306 -0.60387 0.39371 0.69306 -0.60387
0.31554 0.67832 -0.66357 0.31554 0.67832 -0.66357
0.32901 0.70012 -0.63371 0.32901 0.70012 -0.63371
0.34841 0.67579 -0.64955 0.34841 0.67579 -0.64955
0.32352 0.57945 -0.74805 0.32352 0.57945 -0.74805
0.3387 0.60401 -0.72142 0.3387 0.60401 -0.72142
0.35687 0.57742 -0.73432 0.35687 0.57742 -0.73432
0.27133 0.60668 -0.74721 0.27133 0.60668 -0.74721
0.28968 0.58069 -0.76084 0.28968 0.58069 -0.76084
0.32548 0.52663 -0.78532 0.32548 0.52663 -0.78532
0.30777 0.55396 -0.77357 0.30777 0.55396 -0.77357
0.70205 0.69378 -0.16062 0.70205 0.69378 -0.16062
0.74788 0.5977 -0.28885 0.74788 0.5977 -0.28885
0.72442 0.61606 -0.30933 0.72442 0.61606 -0.30933
0.72635 0.62958 -0.27577 0.72635 0.62958 -0.27577
0.76503 0.55036 -0.33442 0.76503 0.55036 -0.33442
0.76823 0.56477 -0.30143 0.76823 0.56477 -0.30143
0.7873 0.53096 -0.31344 0.7873 0.53096 -0.31344
0.77155 0.59147 -0.23425 0.77155 0.59147 -0.23425
0.7919 0.55855 -0.24683 0.7919 0.55855 -0.24683
0.77041 0.5785 -0.26797 0.77041 0.5785 -0.26797
0.79011 0.54511 -0.28032 0.79011 0.54511 -0.28032
0.83036 0.50421 -0.23723 0.83036 0.50421 -0.23723
0.82517 0.47623 -0.3038 0.82517 0.47623 -0.3038
0.82831 0.49054 -0.27069 0.82831 0.49054 -0.27069
0.8083 0.51108 -0.2923 0.8083 0.51108 -0.2923
0.81076 0.525 -0.25894 0.81076 0.525 -0.25894
0.74979 0.63458 -0.18743 0.74979 0.63458 -0.18743
0.74943 0.61093 -0.25518 0.74943 0.61093 -0.25518
0.70398 0.67232 -0.2289 0.70398 0.67232 -0.2289
0.7273 0.64215 -0.24224 0.7273 0.64215 -0.24224
0.72736 0.65388 -0.2083 0.72736 0.65388 -0.2083
0.75009 0.62315 -0.22145 0.75009 0.62315 -0.22145
0.73771 0.55337 -0.38673 0.73771 0.55337 -0.38673
0.69704 0.61919 -0.36159 0.69704 0.61919 -0.36159
0.74534 0.58369 -0.32214 0.74534 0.58369 -0.32214
0.72165 0.60183 -0.34209 0.72165 0.60183 -0.34209
0.742 0.5689 -0.35466 0.742 0.5689 -0.35466
0.71797 0.58676 -0.37447 0.71797 0.58676 -0.37447
0.70231 0.64741 -0.296 0.70231 0.64741 -0.296
0.6015 0.70711 -0.37175 0.6015 0.70711 -0.37175
0.60683 0.75865 -0.23709 0.60683 0.75865 -0.23709
0.60574 0.73479 -0.30521 0.60574 0.73479 -0.30521
0.65662 0.70524 -0.26738 0.65662 0.70524 -0.26738
0.6535 0.67891 -0.33469 0.6535 0.67891 -0.33469
0.65549 0.69253 -0.30123 0.65549 0.69253 -0.30123
0.63011 0.70741 -0.3202 0.63011 0.70741 -0.3202
0.63157 0.72046 -0.28647 0.63157 0.72046 -0.28647
0.55474 0.78571 -0.27371 0.55474 0.78571 -0.27371
0.55396 0.77357 -0.30777 0.55396 0.77357 -0.30777
0.52663 0.78532 -0.32548 0.52663 0.78532 -0.32548
0.52769 0.79784 -0.29154 0.52769 0.79784 -0.29154
0.57742 0.73432 -0.35687 0.57742 0.73432 -0.35687
0.57945 0.74805 -0.32352 0.57945 0.74805 -0.32352
0.60401 0.72142 -0.3387 0.60401 0.72142 -0.3387
0.58113 0.77265 -0.25555 0.58113 0.77265 -0.25555
0.60668 0.74721 -0.27133 0.60668 0.74721 -0.27133
0.58069 0.76084 -0.28968 0.58069 0.76084 -0.28968
0.65601 0.72796 -0.19933 0.65601 0.72796 -0.19933
0.68071 0.68919 -0.24829 0.68071 0.68919 -0.24829
0.7036 0.66029 -0.26262 0.7036 0.66029 -0.26262
0.68 0.67685 -0.28191 0.68 0.67685 -0.28191
0.70347 0.68349 -0.19489 0.70347 0.68349 -0.19489
0.68053 0.70069 -0.21428 0.68053 0.70069 -0.21428
0.67943 0.71129 -0.18008 0.67943 0.71129 -0.18008
0.63222 0.73252 -0.25243 0.63222 0.73252 -0.25243
0.63179 0.74375 -0.21834 0.63179 0.74375 -0.21834
0.65674 0.71706 -0.23351 0.65674 0.71706 -0.23351
0.67579 0.64955 -0.34841 0.67579 0.64955 -0.34841
0.67832 0.66357 -0.31554 0.67832 0.66357 -0.31554
0.70012 0.63371 -0.32901 0.70012 0.63371 -0.32901
0.62788 0.69343 -0.35343 0.62788 0.69343 -0.35343
0.65059 0.66461 -0.36747 0.65059 0.66461 -0.36747
0.62465 0.6788 -0.38606 0.62465 0.6788 -0.38606
0.69306 0.60387 -0.39371 0.69306 0.60387 -0.39371
0.66803 0.61909 -0.41287 0.66803 0.61909 -0.41287
0.67235 0.63471 -0.38091 0.67235 0.63471 -0.38091
0.75794 0.45399 -0.46843 0.75794 0.45399 -0.46843
0.78345 0.51612 -0.34615 0.78345 0.51612 -0.34615
0.81623 0.44698 -0.36603 0.81623 0.44698 -0.36603
0.80302 0.4156 -0.42714 0.80302 0.4156 -0.42714
0.77258 0.48624 -0.40829 0.77258 0.48624 -0.40829
0.78841 0.45127 -0.41804 0.78841 0.45127 -0.41804
0.79492 0.46691 -0.38741 0.79492 0.46691 -0.38741
0.81012 0.43155 -0.39682 0.81012 0.43155 -0.39682
0.84092 0.44118 -0.31341 0.84092 0.44118 -0.31341
0.84446 0.45535 -0.28203 0.84446 0.45535 -0.28203
0.80483 0.49649 -0.32519 0.80483 0.49649 -0.32519
0.8212 0.46188 -0.33512 0.8212 0.46188 -0.33512
0.80047 0.48193 -0.35637 0.80047 0.48193 -0.35637
0.83072 0.41133 -0.37511 0.83072 0.41133 -0.37511
0.83632 0.42648 -0.3445 0.83632 0.42648 -0.3445
0.79494 0.39938 -0.4567 0.79494 0.39938 -0.4567
0.77251 0.41866 -0.47744 0.77251 0.41866 -0.47744
0.78098 0.43508 -0.44807 0.78098 0.43508 -0.44807
0.79807 0.34612 -0.49324 0.79807 0.34612 -0.49324
0.8077 0.363 -0.46459 0.8077 0.363 -0.46459
0.824 0.39558 -0.40564 0.824 0.39558 -0.40564
0.81636 0.37952 -0.43534 0.81636 0.37952 -0.43534
0.74942 0.50469 -0.42855 0.74942 0.50469 -0.42855
0.76572 0.4704 -0.43862 0.76572 0.4704 -0.43862
0.74219 0.48862 -0.4587 0.74219 0.48862 -0.4587
0.77849 0.50149 -0.37745 0.77849 0.50149 -0.37745
0.75573 0.52021 -0.39782 0.75573 0.52021 -0.39782
0.76107 0.53509 -0.36668 0.76107 0.53509 -0.36668
0.70729 0.55557 -0.43713 0.70729 0.55557 -0.43713
0.71341 0.57094 -0.40629 0.71341 0.57094 -0.40629
0.73195 0.53826 -0.41775 0.73195 0.53826 -0.41775
0.78384 0.61564 -0.081086 0.78384 0.61564 -0.081086
0.79265 0.57125 -0.21302 0.79265 0.57125 -0.21302
0.83081 0.52914 -0.17253 0.83081 0.52914 -0.17253
0.79017 0.5949 -0.14741 0.79017 0.5949 -0.14741
0.82711 0.55186 -0.10649 0.82711 0.55186 -0.10649
0.80913 0.57373 -0.12703 0.80913 0.57373 -0.12703
0.82947 0.54083 -0.1396 0.82947 0.54083 -0.1396
0.81116 0.56248 -0.16011 0.81116 0.56248 -0.16011
0.84863 0.48253 -0.21675 0.84863 0.48253 -0.21675
0.8472 0.46943 -0.24876 0.8472 0.46943 -0.24876
0.84903 0.49511 -0.18442 0.84903 0.49511 -0.18442
0.84839 0.5071 -0.15196 0.84839 0.5071 -0.15196
0.81216 0.53817 -0.22531 0.81216 0.53817 -0.22531
0.81222 0.55053 -0.19289 0.81222 0.55053 -0.19289
0.83109 0.51698 -0.205 0.83109 0.51698 -0.205
0.74473 0.65628 -0.12114 0.74473 0.65628 -0.12114
0.76808 0.6261 -0.13439 0.76808 0.6261 -0.13439
0.76474 0.63634 -0.10118 0.76474 0.63634 -0.10118
0.78749 0.60564 -0.11432 0.78749 0.60564 -0.11432
0.72382 0.67544 -0.14097 0.72382 0.67544 -0.14097
0.74771 0.64583 -0.15438 0.74771 0.64583 -0.15438
0.72651 0.66472 -0.17417 0.72651 0.66472 -0.17417
0.79189 0.58343 -0.18033 0.79189 0.58343 -0.18033
0.77185 0.60341 -0.20039 0.77185 0.60341 -0.20039
0.77044 0.61511 -0.16752 0.77044 0.61511 -0.16752
0.81921 0.57206 -0.04064 0.81921 0.57206 -0.04064
0.82365 0.56229 -0.073611 0.82365 0.56229 -0.073611
0.80614 0.58423 -0.093868 0.80614 0.58423 -0.093868
0.80201 0.5942 -0.0609 0.80201 0.5942 -0.0609
0.84672 0.51858 -0.11895 0.84672 0.51858 -0.11895
0.84399 0.5294 -0.086178 0.84399 0.5294 -0.086178
0.83543 0.54922 -0.020332 0.83543 0.54922 -0.020332
0.84022 0.53962 -0.053243 0.84022 0.53962 -0.053243
0.80902 0.30902 -0.5 0.80902 0.30902 -0.5
0.95106 -0.16246 -0.26287 0.95106 -0.16246 -0.26287
0.85065 0 -0.52573 0.85065 0 -0.52573
0.95106 0.16246 -0.26287 0.95106 0.16246 -0.26287
0.91298 0.082324 -0.39961 0.91298 0.082324 -0.39961
0.96386 0 -0.26641 0.96386 0 -0.26641
0.91298 -0.082324 -0.39961 0.91298 -0.082324 -0.39961
0.94162 -0.041302 -0.33414 0.94162 -0.041302 -0.33414
0.91609 0 -0.40097 0.91609 0 -0.40097
0.94162 0.041302 -0.33414 0.94162 0.041302 -0.33414
0.92965 0.020669 -0.36787 0.92965 0.020669 -0.36787
0.94242 0 -0.33443 0.94242 0 -0.33443
0.92965 -0.020669 -0.36787 0.92965 -0.020669 -0.36787
0.9487 -0.10224 -0.29919 0.9487 -0.10224 -0.29919
0.95665 -0.12208 -0.26441 0.95665 -0.12208 -0.26441
0.94388 -0.14275 -0.29785 0.94388 -0.14275 -0.29785
0.96306 -0.040785 -0.26618 0.96306 -0.040785 -0.26618
0.95193 -0.061453 -0.30008 0.95193 -0.061453 -0.30008
0.95355 -0.020669 -0.30053 0.95355 -0.020669 -0.30053
0.92483 -0.10265 -0.36628 0.92483 -0.10265 -0.36628
0.92809 -0.061865 -0.36719 0.92809 -0.061865 -0.36719
0.93916 -0.08212 -0.33352 0.93916 -0.08212 -0.33352
0.90118 0.020667 -0.43295 0.90118 0.020667 -0.43295
0.89962 0.061863 -0.43227 0.89962 0.061863 -0.43227
0.91531 0.041197 -0.40063 0.91531 0.041197 -0.40063
0.86843 0.020667 -0.49538 0.86843 0.020667 -0.49538
0.88552 0 -0.46461 0.88552 0 -0.46461
0.86843 -0.020667 -0.49538 0.86843 -0.020667 -0.49538
0.91531 -0.041197 -0.40063 0.91531 -0.041197 -0.40063
0.89962 -0.061863 -0.43227 0.89962 -0.061863 -0.43227
0.90118 -0.020667 -0.43295 0.90118 -0.020667 -0.43295
0.93916 0.08212 -0.33352 0.93916 0.08212 -0.33352
0.92809 0.061865 -0.36719 0.92809 0.061865 -0.36719
0.92483 0.10265 -0.36628 0.92483 0.10265 -0.36628
0.95355 0.020669 -0.30053 0.95355 0.020669 -0.30053
0.95193 0.061453 -0.30008 0.95193 0.061453 -0.30008
0.96306 0.040785 -0.26618 0.96306 0.040785 -0.26618
0.94388 0.14275 -0.29785 0.94388 0.14275 -0.29785
0.95665 0.12208 -0.26441 0.95665 0.12208 -0.26441
0.9487 0.10224 -0.29919 0.9487 0.10224 -0.29919
0.89285 0.1405 -0.42787 0.89285 0.1405 -0.42787
0.90963 0.12176 -0.39718 0.90963 0.12176 -0.39718
0.89687 0.10112 -0.43058 0.89687 0.10112 -0.43058
0.89863 0.2 -0.39047 0.89863 0.2 -0.39047
0.88739 0.17976 -0.42453 0.88739 0.17976 -0.42453
0.88052 0.21864 -0.42058 0.88052 0.21864 -0.42058
0.86044 0.1382 -0.49046 0.86044 0.1382 -0.49046
0.85508 0.17748 -0.48717 0.85508 0.17748 -0.48717
0.87463 0.15912 -0.45793 0.87463 0.15912 -0.45793
0.86853 0.19823 -0.45426 0.86853 0.19823 -0.45426
0.82715 0.23345 -0.51121 0.82715 0.23345 -0.51121
0.85264 0.27469 -0.44446 0.85264 0.27469 -0.44446
0.84061 0.25429 -0.47824 0.84061 0.25429 -0.47824
0.86125 0.23664 -0.44971 0.86125 0.23664 -0.44971
0.8485 0.216 -0.48311 0.8485 0.216 -0.48311
0.84803 0.078459 -0.52411 0.84803 0.078459 -0.52411
0.87934 0.11975 -0.46088 0.87934 0.11975 -0.46088
0.88476 0.041299 -0.46421 0.88476 0.041299 -0.46421
0.88274 0.08059 -0.46291 0.88274 0.08059 -0.46291
0.86708 0.059927 -0.49455 0.86708 0.059927 -0.49455
0.86441 0.09919 -0.49291 0.86441 0.09919 -0.49291
0.92388 0.20119 -0.32553 0.92388 0.20119 -0.32553
0.93513 0.1228 -0.33234 0.93513 0.1228 -0.33234
0.90484 0.16101 -0.39414 0.90484 0.16101 -0.39414
0.9207 0.14201 -0.36352 0.9207 0.14201 -0.36352
0.91512 0.18125 -0.36013 0.91512 0.18125 -0.36013
0.93024 0.16212 -0.3292 0.93024 0.16212 -0.3292
0.98573 0.020642 -0.16708 0.98573 0.020642 -0.16708
0.98404 0.061795 -0.16685 0.98404 0.061795 -0.16685
0.99021 0.041156 -0.13341 0.99021 0.041156 -0.13341
0.97212 0.020642 -0.23357 0.97212 0.020642 -0.23357
0.97969 0 -0.20054 0.97969 0 -0.20054
0.97212 -0.020642 -0.23357 0.97212 -0.020642 -0.23357
0.99021 -0.041156 -0.13341 0.99021 -0.041156 -0.13341
0.98404 -0.061795 -0.16685 0.98404 -0.061795 -0.16685
0.98573 -0.020642 -0.16708 0.98573 -0.020642 -0.16708
0.97885 -0.041251 -0.20037 0.97885 -0.041251 -0.20037
0.97237 -0.12273 -0.19858 0.97237 -0.12273 -0.19858
0.96065 -0.081501 -0.26552 0.96065 -0.081501 -0.26552
0.96728 -0.1022 -0.23223 0.96728 -0.1022 -0.23223
0.97051 -0.061424 -0.23312 0.97051 -0.061424 -0.23312
0.97643 -0.082059 -0.19964 0.97643 -0.082059 -0.19964
0.99692 -0.041248 -0.066741 0.99692 -0.041248 -0.066741
0.99105 0 -0.13352 0.99105 0 -0.13352
0.99692 0.041248 -0.066741 0.99692 0.041248 -0.066741
0.99475 0.02064 -0.10021 0.99475 0.02064 -0.10021
0.99777 0 -0.066798 0.99777 0 -0.066798
0.99475 -0.02064 -0.10021 0.99475 -0.02064 -0.10021
0.96065 0.081501 -0.26552 0.96065 0.081501 -0.26552
0.97237 0.12273 -0.19858 0.97237 0.12273 -0.19858
0.97885 0.041251 -0.20037 0.97885 0.041251 -0.20037
0.97643 0.082059 -0.19964 0.97643 0.082059 -0.19964
0.97051 0.061424 -0.23312 0.97051 0.061424 -0.23312
0.96728 0.1022 -0.23223 0.96728 0.1022 -0.23223
0.87463 -0.15912 -0.45793 0.87463 -0.15912 -0.45793
0.85508 -0.17748 -0.48717 0.85508 -0.17748 -0.48717
0.86044 -0.1382 -0.49046 0.86044 -0.1382 -0.49046
0.88052 -0.21864 -0.42058 0.88052 -0.21864 -0.42058
0.88739 -0.17976 -0.42453 0.88739 -0.17976 -0.42453
0.89863 -0.2 -0.39047 0.89863 -0.2 -0.39047
0.89687 -0.10112 -0.43058 0.89687 -0.10112 -0.43058
0.90963 -0.12176 -0.39718 0.90963 -0.12176 -0.39718
0.89285 -0.1405 -0.42787 0.89285 -0.1405 -0.42787
0.90484 -0.16101 -0.39414 0.90484 -0.16101 -0.39414
0.93513 -0.1228 -0.33234 0.93513 -0.1228 -0.33234
0.92388 -0.20119 -0.32553 0.92388 -0.20119 -0.32553
0.93024 -0.16212 -0.3292 0.93024 -0.16212 -0.3292
0.91512 -0.18125 -0.36013 0.91512 -0.18125 -0.36013
0.9207 -0.14201 -0.36352 0.9207 -0.14201 -0.36352
0.88476 -0.041299 -0.46421 0.88476 -0.041299 -0.46421
0.87934 -0.11975 -0.46088 0.87934 -0.11975 -0.46088
0.84803 -0.078459 -0.52411 0.84803 -0.078459 -0.52411
0.86441 -0.09919 -0.49291 0.86441 -0.09919 -0.49291
0.86708 -0.059927 -0.49455 0.86708 -0.059927 -0.49455
0.88274 -0.08059 -0.46291 0.88274 -0.08059 -0.46291
0.85264 -0.27469 -0.44446 0.85264 -0.27469 -0.44446
0.82715 -0.23345 -0.51121 0.82715 -0.23345 -0.51121
0.86853 -0.19823 -0.45426 0.86853 -0.19823 -0.45426
0.8485 -0.216 -0.48311 0.8485 -0.216 -0.48311
0.86125 -0.23664 -0.44971 0.86125 -0.23664 -0.44971
0.84061 -0.25429 -0.47824 0.84061 -0.25429 -0.47824
0.93603 -0.31052 -0.16561 0.93603 -0.31052 -0.16561
0.93667 -0.32429 -0.1322 0.93667 -0.32429 -0.1322
0.9241 -0.34464 -0.16513 0.9241 -0.34464 -0.16513
0.95773 -0.25519 -0.13277 0.95773 -0.25519 -0.13277
0.94675 -0.27592 -0.16594 0.94675 -0.27592 -0.16594
0.9562 -0.24103 -0.16608 0.9562 -0.24103 -0.16608
0.92006 -0.31614 -0.23139 0.92006 -0.31614 -0.23139
0.93111 -0.28164 -0.23178 0.93111 -0.28164 -0.23178
0.93417 -0.29627 -0.19887 0.93417 -0.29627 -0.19887
0.94443 -0.26155 -0.19909 0.94443 -0.26155 -0.19909
0.93605 -0.23245 -0.26415 0.93605 -0.23245 -0.26415
0.96119 -0.19178 -0.19834 0.96119 -0.19178 -0.19834
0.9494 -0.21229 -0.23144 0.9494 -0.21229 -0.23144
0.95342 -0.22681 -0.19884 0.95342 -0.22681 -0.19884
0.94085 -0.24716 -0.23177 0.94085 -0.24716 -0.23177
0.89174 -0.36852 -0.26266 0.89174 -0.36852 -0.26266
0.92268 -0.33061 -0.19839 0.92268 -0.33061 -0.19839
0.8964 -0.39735 -0.19641 0.8964 -0.39735 -0.19641
0.91013 -0.36421 -0.19753 0.91013 -0.36421 -0.19753
0.89466 -0.38319 -0.22969 0.89466 -0.38319 -0.22969
0.90795 -0.34985 -0.23071 0.90795 -0.34985 -0.23071
0.96664 -0.24733 -0.066567 0.96664 -0.24733 -0.066567
0.9462 -0.31678 -0.066042 0.9462 -0.31678 -0.066042
0.94782 -0.28993 -0.13257 0.94782 -0.28993 -0.13257
0.94762 -0.30355 -0.09937 0.94762 -0.30355 -0.09937
0.95801 -0.26885 -0.09965 0.95801 -0.26885 -0.09965
0.95705 -0.28224 -0.066348 0.95705 -0.28224 -0.066348
0.9243 -0.35823 -0.13165 0.9243 -0.35823 -0.13165
0.89293 -0.44536 -0.065817 0.89293 -0.44536 -0.065817
0.8968 -0.42236 -0.13175 0.8968 -0.42236 -0.13175
0.92192 -0.38172 -0.065988 0.92192 -0.38172 -0.065988
0.91011 -0.40237 -0.09895 0.91011 -0.40237 -0.09895
0.90798 -0.4138 -0.065943 0.90798 -0.4138 -0.065943
0.89541 -0.43413 -0.098843 0.89541 -0.43413 -0.098843
0.87313 -0.48638 -0.032906 0.87313 -0.48638 -0.032906
0.88948 -0.45579 -0.032928 0.88948 -0.45579 -0.032928
0.90473 -0.42471 -0.032936 0.90473 -0.42471 -0.032936
0.87965 -0.46529 -0.09859 0.87965 -0.46529 -0.09859
0.87691 -0.47612 -0.065827 0.87691 -0.47612 -0.065827
0.89714 -0.4101 -0.16418 0.89714 -0.4101 -0.16418
0.91109 -0.3781 -0.16417 0.91109 -0.3781 -0.16417
0.91111 -0.39053 -0.13178 0.91111 -0.39053 -0.13178
0.88025 -0.41596 -0.22834 0.88025 -0.41596 -0.22834
0.88168 -0.42907 -0.19633 0.88168 -0.42907 -0.19633
0.8814 -0.45368 -0.13155 0.8814 -0.45368 -0.13155
0.88206 -0.44168 -0.16402 0.88206 -0.44168 -0.16402
0.93462 -0.34946 -0.066055 0.93462 -0.34946 -0.066055
0.92367 -0.3702 -0.098882 0.92367 -0.3702 -0.098882
0.93601 -0.33778 -0.098929 0.93601 -0.33778 -0.098929
0.91904 -0.39278 -0.033014 0.91904 -0.39278 -0.033014
0.93209 -0.36072 -0.033021 0.93209 -0.36072 -0.033021
0.95484 -0.29526 -0.033048 0.95484 -0.29526 -0.033048
0.94405 -0.32815 -0.033041 0.94405 -0.32815 -0.033041
0.96639 -0.22012 -0.13279 0.96639 -0.22012 -0.13279
0.98769 -0.082243 -0.13307 0.98769 -0.082243 -0.13307
0.97943 -0.15155 -0.13326 0.97943 -0.15155 -0.13326
0.99165 -0.11038 -0.066709 0.99165 -0.11038 -0.066709
0.98148 -0.1796 -0.066604 0.98148 -0.1796 -0.066604
0.98717 -0.14508 -0.066698 0.98717 -0.14508 -0.066698
0.9811 -0.16568 -0.099996 0.9811 -0.16568 -0.099996
0.98631 -0.13107 -0.10006 0.98631 -0.13107 -0.10006
0.96737 -0.15735 -0.19858 0.96737 -0.15735 -0.19858
0.95674 -0.17723 -0.23075 0.95674 -0.17723 -0.23075
0.96246 -0.14271 -0.2309 0.96246 -0.14271 -0.2309
0.96441 -0.20608 -0.16567 0.96441 -0.20608 -0.16567
0.97106 -0.1718 -0.16593 0.97106 -0.1718 -0.16593
0.9735 -0.18595 -0.13311 0.9735 -0.18595 -0.13311
0.98079 -0.10257 -0.16595 0.98079 -0.10257 -0.16595
0.98416 -0.11697 -0.13324 0.98416 -0.11697 -0.13324
0.97653 -0.13723 -0.16602 0.97653 -0.13723 -0.16602
0.9954 -0.089833 -0.033381 0.9954 -0.089833 -0.033381
0.99169 -0.12425 -0.033376 0.99169 -0.12425 -0.033376
0.99792 -0.055231 -0.033393 0.99792 -0.055231 -0.033393
0.99923 -0.02064 -0.033396 0.99923 -0.02064 -0.033396
0.99031 -0.096377 -0.099955 0.99031 -0.096377 -0.099955
0.99307 -0.061793 -0.099983 0.99307 -0.061793 -0.099983
0.99488 -0.075862 -0.066765 0.99488 -0.075862 -0.066765
0.98064 -0.19297 -0.033324 0.98064 -0.19297 -0.033324
0.98673 -0.1589 -0.033328 0.98673 -0.1589 -0.033328
0.9747 -0.20001 -0.099776 0.9747 -0.20001 -0.099776
0.97465 -0.21359 -0.066626 0.97465 -0.21359 -0.066626
0.96714 -0.23387 -0.099744 0.96714 -0.23387 -0.099744
0.96491 -0.26046 -0.033305 0.96491 -0.26046 -0.033305
0.97335 -0.22689 -0.03331 0.97335 -0.22689 -0.03331
0.89101 -0.23868 -0.38619 0.89101 -0.23868 -0.38619
0.91624 -0.30126 -0.26408 0.91624 -0.30126 -0.26408
0.90583 -0.27063 -0.32593 0.90583 -0.27063 -0.32593
0.88284 -0.33921 -0.32486 0.88284 -0.33921 -0.32486
0.86973 -0.30766 -0.38591 0.86973 -0.30766 -0.38591
0.87682 -0.32363 -0.3556 0.87682 -0.32363 -0.3556
0.88848 -0.28937 -0.3562 0.88848 -0.28937 -0.3562
0.89492 -0.30512 -0.32561 0.89492 -0.30512 -0.32561
0.93053 -0.21695 -0.29502 0.93053 -0.21695 -0.29502
0.93819 -0.18196 -0.29443 0.93819 -0.18196 -0.29443
0.94416 -0.19758 -0.26368 0.94416 -0.19758 -0.26368
0.90814 -0.2201 -0.35613 0.90814 -0.2201 -0.35613
0.91544 -0.23606 -0.32594 0.91544 -0.23606 -0.32594
0.89897 -0.25481 -0.35627 0.89897 -0.25481 -0.35627
0.92674 -0.26703 -0.26429 0.92674 -0.26703 -0.26429
0.91159 -0.28612 -0.29519 0.91159 -0.28612 -0.29519
0.92165 -0.25174 -0.29527 0.92165 -0.25174 -0.29527
0.86965 -0.37256 -0.3239 0.86965 -0.37256 -0.3239
0.86405 -0.3574 -0.35452 0.86405 -0.3574 -0.35452
0.87423 -0.38728 -0.29282 0.87423 -0.38728 -0.29282
0.87777 -0.40146 -0.26144 0.87777 -0.40146 -0.26144
0.90024 -0.32048 -0.2947 0.90024 -0.32048 -0.2947
0.90457 -0.3351 -0.26354 0.90457 -0.3351 -0.26354
0.88782 -0.35408 -0.29394 0.88782 -0.35408 -0.29394
0.84974 -0.32551 -0.41471 0.84974 -0.32551 -0.41471
0.85738 -0.34157 -0.38501 0.85738 -0.34157 -0.38501
0.88094 -0.27335 -0.3863 0.88094 -0.27335 -0.3863
0.8617 -0.29135 -0.41543 0.8617 -0.29135 -0.41543
0.8725 -0.25688 -0.41565 0.8725 -0.25688 -0.41565
0.83147 -0.29208 -0.4726 0.83147 -0.29208 -0.4726
0.84109 -0.30897 -0.44396 0.84109 -0.30897 -0.44396
0.69378 0.16062 -0.70205 0.69378 0.16062 -0.70205
0.76364 0.020352 -0.64532 0.76364 0.020352 -0.64532
0.76235 0.060949 -0.64429 0.76235 0.060949 -0.64429
0.78214 0.040604 -0.62178 0.78214 0.040604 -0.62178
0.72367 0.020352 -0.68984 0.72367 0.020352 -0.68984
0.74411 0 -0.66805 0.74411 0 -0.66805
0.72367 -0.020352 -0.68984 0.72367 -0.020352 -0.68984
0.78214 -0.040604 -0.62178 0.78214 -0.040604 -0.62178
0.76235 -0.060949 -0.64429 0.76235 -0.060949 -0.64429
0.76364 -0.020352 -0.64532 0.76364 -0.020352 -0.64532
0.7435 -0.040677 -0.6675 0.7435 -0.040677 -0.6675
0.73889 -0.12119 -0.66284 0.73889 -0.12119 -0.66284
0.70062 -0.080573 -0.70897 0.70062 -0.080573 -0.70897
0.72023 -0.10095 -0.68636 0.72023 -0.10095 -0.68636
0.72252 -0.060664 -0.68868 0.72252 -0.060664 -0.68868
0.7418 -0.081001 -0.66572 0.7418 -0.081001 -0.66572
0.81752 -0.040675 -0.57446 0.81752 -0.040675 -0.57446
0.78279 0 -0.62229 0.78279 0 -0.62229
0.81752 0.040675 -0.57446 0.81752 0.040675 -0.57446
0.80067 0.020351 -0.59876 0.80067 0.020351 -0.59876
0.8182 0 -0.57493 0.8182 0 -0.57493
0.80067 -0.020351 -0.59876 0.80067 -0.020351 -0.59876
0.70062 0.080573 -0.70897 0.70062 0.080573 -0.70897
0.73889 0.12119 -0.66284 0.73889 0.12119 -0.66284
0.7435 0.040677 -0.6675 0.7435 0.040677 -0.6675
0.7418 0.081001 -0.66572 0.7418 0.081001 -0.66572
0.72252 0.060664 -0.68868 0.72252 0.060664 -0.68868
0.72023 0.10095 -0.68636 0.72023 0.10095 -0.68636
0.7802 0.081142 -0.62024 0.7802 0.081142 -0.62024
0.75865 0.23709 -0.60683 0.75865 0.23709 -0.60683
0.84018 0.15643 -0.51926 0.84018 0.15643 -0.51926
0.8015 0.19727 -0.56451 0.8015 0.19727 -0.56451
0.81217 0.11908 -0.57114 0.81217 0.11908 -0.57114
0.77184 0.15961 -0.61546 0.77184 0.15961 -0.61546
0.79252 0.13944 -0.59369 0.79252 0.13944 -0.59369
0.78715 0.17855 -0.59035 0.78715 0.17855 -0.59035
0.80747 0.1583 -0.56827 0.80747 0.1583 -0.56827
0.78571 0.27371 -0.55474 0.78571 0.27371 -0.55474
0.80696 0.25374 -0.53332 0.80696 0.25374 -0.53332
0.79784 0.29154 -0.52769 0.79784 0.29154 -0.52769
0.81871 0.27144 -0.50599 0.81871 0.27144 -0.50599
0.77265 0.25555 -0.58113 0.77265 0.25555 -0.58113
0.79422 0.23567 -0.56006 0.79422 0.23567 -0.56006
0.78059 0.21732 -0.58605 0.78059 0.21732 -0.58605
0.83431 0.19509 -0.51563 0.83431 0.19509 -0.51563
0.82138 0.17697 -0.54224 0.82138 0.17697 -0.54224
0.81482 0.21549 -0.53818 0.81482 0.21549 -0.53818
0.81548 0.079939 -0.57324 0.81548 0.079939 -0.57324
0.79938 0.060948 -0.59773 0.79938 0.060948 -0.59773
0.79667 0.10017 -0.59605 0.79667 0.10017 -0.59605
0.83462 0.020351 -0.55045 0.83462 0.020351 -0.55045
0.83329 0.059604 -0.54962 0.83329 0.059604 -0.54962
0.84999 0.03926 -0.52533 0.84999 0.03926 -0.52533
0.82668 0.13784 -0.54553 0.82668 0.13784 -0.54553
0.84475 0.11754 -0.52209 0.84475 0.11754 -0.52209
0.83063 0.098832 -0.54798 0.83063 0.098832 -0.54798
0.72796 0.19933 -0.65601 0.72796 0.19933 -0.65601
0.75582 0.14049 -0.63953 0.75582 0.14049 -0.63953
0.77663 0.12047 -0.61833 0.77663 0.12047 -0.61833
0.76003 0.10123 -0.64195 0.76003 0.10123 -0.64195
0.76584 0.1985 -0.61162 0.76584 0.1985 -0.61162
0.75038 0.17959 -0.63614 0.75038 0.17959 -0.63614
0.74375 0.21834 -0.63179 0.74375 0.21834 -0.63179
0.71679 0.141 -0.68288 0.71679 0.141 -0.68288
0.71129 0.18008 -0.67943 0.71129 0.18008 -0.67943
0.734 0.16039 -0.65994 0.734 0.16039 -0.65994
0.61564 0.081086 -0.78384 0.61564 0.081086 -0.78384
0.70291 0 -0.71128 0.70291 0 -0.71128
0.66088 -0.040642 -0.74939 0.66088 -0.040642 -0.74939
0.61768 0 -0.78643 0.61768 0 -0.78643
0.66088 0.040642 -0.74939 0.66088 0.040642 -0.74939
0.63967 0.020333 -0.76838 0.63967 0.020333 -0.76838
0.66143 0 -0.75001 0.66143 0 -0.75001
0.63967 -0.020333 -0.76838 0.63967 -0.020333 -0.76838
0.67887 -0.10092 -0.72729 0.67887 -0.10092 -0.72729
0.69777 -0.1207 -0.70608 0.69777 -0.1207 -0.70608
0.70234 -0.040319 -0.7107 0.70234 -0.040319 -0.7107
0.68116 -0.060644 -0.72962 0.68116 -0.060644 -0.72962
0.68231 -0.020333 -0.73078 0.68231 -0.020333 -0.73078
0.63865 -0.060901 -0.76708 0.63865 -0.060901 -0.76708
0.65912 -0.080959 -0.74767 0.65912 -0.080959 -0.74767
0.57206 0.04064 -0.81921 0.57206 0.04064 -0.81921
0.59522 0.020332 -0.8033 0.59522 0.020332 -0.8033
0.5942 0.0609 -0.80201 0.5942 0.0609 -0.80201
0.61717 0.040577 -0.78579 0.61717 0.040577 -0.78579
0.54922 0.020332 -0.83543 0.54922 0.020332 -0.83543
0.57253 0 -0.81988 0.57253 0 -0.81988
0.61717 -0.040577 -0.78579 0.61717 -0.040577 -0.78579
0.59522 -0.020332 -0.8033 0.59522 -0.020332 -0.8033
0.65628 0.12114 -0.74473 0.65628 0.12114 -0.74473
0.65912 0.080959 -0.74767 0.65912 0.080959 -0.74767
0.63865 0.060901 -0.76708 0.63865 0.060901 -0.76708
0.63634 0.10118 -0.76474 0.63634 0.10118 -0.76474
0.68231 0.020333 -0.73078 0.68231 0.020333 -0.73078
0.68116 0.060644 -0.72962 0.68116 0.060644 -0.72962
0.70234 0.040319 -0.7107 0.70234 0.040319 -0.7107
0.67544 0.14097 -0.72382 0.67544 0.14097 -0.72382
0.69777 0.1207 -0.70608 0.69777 0.1207 -0.70608
0.67887 0.10092 -0.72729 0.67887 0.10092 -0.72729
0.84018 -0.15643 -0.51926 0.84018 -0.15643 -0.51926
0.7802 -0.081142 -0.62024 0.7802 -0.081142 -0.62024
0.77184 -0.15961 -0.61546 0.77184 -0.15961 -0.61546
0.81217 -0.11908 -0.57114 0.81217 -0.11908 -0.57114
0.8015 -0.19727 -0.56451 0.8015 -0.19727 -0.56451
0.80747 -0.1583 -0.56827 0.80747 -0.1583 -0.56827
0.78715 -0.17855 -0.59035 0.78715 -0.17855 -0.59035
0.79252 -0.13944 -0.59369 0.79252 -0.13944 -0.59369
0.734 -0.16039 -0.65994 0.734 -0.16039 -0.65994
0.71679 -0.141 -0.68288 0.71679 -0.141 -0.68288
0.75038 -0.17959 -0.63614 0.75038 -0.17959 -0.63614
0.76584 -0.1985 -0.61162 0.76584 -0.1985 -0.61162
0.76003 -0.10123 -0.64195 0.76003 -0.10123 -0.64195
0.77663 -0.12047 -0.61833 0.77663 -0.12047 -0.61833
0.75582 -0.14049 -0.63953 0.75582 -0.14049 -0.63953
0.83063 -0.098832 -0.54798 0.83063 -0.098832 -0.54798
0.84475 -0.11754 -0.52209 0.84475 -0.11754 -0.52209
0.82668 -0.13784 -0.54553 0.82668 -0.13784 -0.54553
0.84999 -0.03926 -0.52533 0.84999 -0.03926 -0.52533
0.83329 -0.059604 -0.54962 0.83329 -0.059604 -0.54962
0.83462 -0.020351 -0.55045 0.83462 -0.020351 -0.55045
0.79667 -0.10017 -0.59605 0.79667 -0.10017 -0.59605
0.79938 -0.060948 -0.59773 0.79938 -0.060948 -0.59773
0.81548 -0.079939 -0.57324 0.81548 -0.079939 -0.57324
0.81482 -0.21549 -0.53818 0.81482 -0.21549 -0.53818
0.82138 -0.17697 -0.54224 0.82138 -0.17697 -0.54224
0.83431 -0.19509 -0.51563 0.83431 -0.19509 -0.51563
0.78059 -0.21732 -0.58605 0.78059 -0.21732 -0.58605
0.79422 -0.23567 -0.56006 0.79422 -0.23567 -0.56006
0.81871 -0.27144 -0.50599 0.81871 -0.27144 -0.50599
0.80696 -0.25374 -0.53332 0.80696 -0.25374 -0.53332
0.86267 0.43389 -0.25989 0.86267 0.43389 -0.25989
0.93417 0.29627 -0.19887 0.93417 0.29627 -0.19887
0.93111 0.28164 -0.23178 0.93111 0.28164 -0.23178
0.92006 0.31614 -0.23139 0.92006 0.31614 -0.23139
0.9562 0.24103 -0.16608 0.9562 0.24103 -0.16608
0.94675 0.27592 -0.16594 0.94675 0.27592 -0.16594
0.95773 0.25519 -0.13277 0.95773 0.25519 -0.13277
0.9241 0.34464 -0.16513 0.9241 0.34464 -0.16513
0.93667 0.32429 -0.1322 0.93667 0.32429 -0.1322
0.93603 0.31052 -0.16561 0.93603 0.31052 -0.16561
0.94782 0.28993 -0.13257 0.94782 0.28993 -0.13257
0.9462 0.31678 -0.066042 0.9462 0.31678 -0.066042
0.96664 0.24733 -0.066567 0.96664 0.24733 -0.066567
0.95705 0.28224 -0.066348 0.95705 0.28224 -0.066348
0.95801 0.26885 -0.09965 0.95801 0.26885 -0.09965
0.94762 0.30355 -0.09937 0.94762 0.30355 -0.09937
0.8964 0.39735 -0.19641 0.8964 0.39735 -0.19641
0.92268 0.33061 -0.19839 0.92268 0.33061 -0.19839
0.89174 0.36852 -0.26266 0.89174 0.36852 -0.26266
0.90795 0.34985 -0.23071 0.90795 0.34985 -0.23071
0.89466 0.38319 -0.22969 0.89466 0.38319 -0.22969
0.91013 0.36421 -0.19753 0.91013 0.36421 -0.19753
0.96119 0.19178 -0.19834 0.96119 0.19178 -0.19834
0.93605 0.23245 -0.26415 0.93605 0.23245 -0.26415
0.94443 0.26155 -0.19909 0.94443 0.26155 -0.19909
0.94085 0.24716 -0.23177 0.94085 0.24716 -0.23177
0.95342 0.22681 -0.19884 0.95342 0.22681 -0.19884
0.9494 0.21229 -0.23144 0.9494 0.21229 -0.23144
0.91624 0.30126 -0.26408 0.91624 0.30126 -0.26408
0.89101 0.23868 -0.38619 0.89101 0.23868 -0.38619
0.84391 0.37504 -0.38361 0.84391 0.37504 -0.38361
0.86973 0.30766 -0.38591 0.86973 0.30766 -0.38591
0.88284 0.33921 -0.32486 0.88284 0.33921 -0.32486
0.90583 0.27063 -0.32593 0.90583 0.27063 -0.32593
0.89492 0.30512 -0.32561 0.89492 0.30512 -0.32561
0.88848 0.28937 -0.3562 0.88848 0.28937 -0.3562
0.87682 0.32363 -0.3556 0.87682 0.32363 -0.3556
0.82845 0.34285 -0.44287 0.82845 0.34285 -0.44287
0.84109 0.30897 -0.44396 0.84109 0.30897 -0.44396
0.83147 0.29208 -0.4726 0.83147 0.29208 -0.4726
0.81922 0.32613 -0.47172 0.81922 0.32613 -0.47172
0.8725 0.25688 -0.41565 0.8725 0.25688 -0.41565
0.8617 0.29135 -0.41543 0.8617 0.29135 -0.41543
0.88094 0.27335 -0.3863 0.88094 0.27335 -0.3863
0.83668 0.35916 -0.41349 0.83668 0.35916 -0.41349
0.85738 0.34157 -0.38501 0.85738 0.34157 -0.38501
0.84974 0.32551 -0.41471 0.84974 0.32551 -0.41471
0.85534 0.40543 -0.32252 0.85534 0.40543 -0.32252
0.88782 0.35408 -0.29394 0.88782 0.35408 -0.29394
0.90457 0.3351 -0.26354 0.90457 0.3351 -0.26354
0.90024 0.32048 -0.2947 0.90024 0.32048 -0.2947
0.87777 0.40146 -0.26144 0.87777 0.40146 -0.26144
0.87423 0.38728 -0.29282 0.87423 0.38728 -0.29282
0.85952 0.41991 -0.29138 0.85952 0.41991 -0.29138
0.86405 0.3574 -0.35452 0.86405 0.3574 -0.35452
0.85013 0.39047 -0.35328 0.85013 0.39047 -0.35328
0.86965 0.37256 -0.3239 0.86965 0.37256 -0.3239
0.92165 0.25174 -0.29527 0.92165 0.25174 -0.29527
0.91159 0.28612 -0.29519 0.91159 0.28612 -0.29519
0.92674 0.26703 -0.26429 0.92674 0.26703 -0.26429
0.89897 0.25481 -0.35627 0.89897 0.25481 -0.35627
0.91544 0.23606 -0.32594 0.91544 0.23606 -0.32594
0.90814 0.2201 -0.35613 0.90814 0.2201 -0.35613
0.94416 0.19758 -0.26368 0.94416 0.19758 -0.26368
0.93819 0.18196 -0.29443 0.93819 0.18196 -0.29443
0.93053 0.21695 -0.29502 0.93053 0.21695 -0.29502
0.98769 0.082243 -0.13307 0.98769 0.082243 -0.13307
0.96639 0.22012 -0.13279 0.96639 0.22012 -0.13279
0.98148 0.1796 -0.066604 0.98148 0.1796 -0.066604
0.99165 0.11038 -0.066709 0.99165 0.11038 -0.066709
0.97943 0.15155 -0.13326 0.97943 0.15155 -0.13326
0.98631 0.13107 -0.10006 0.98631 0.13107 -0.10006
0.9811 0.16568 -0.099996 0.9811 0.16568 -0.099996
0.98717 0.14508 -0.066698 0.98717 0.14508 -0.066698
0.97335 0.22689 -0.03331 0.97335 0.22689 -0.03331
0.96491 0.26046 -0.033305 0.96491 0.26046 -0.033305
0.96714 0.23387 -0.099744 0.96714 0.23387 -0.099744
0.97465 0.21359 -0.066626 0.97465 0.21359 -0.066626
0.9747 0.20001 -0.099776 0.9747 0.20001 -0.099776
0.98673 0.1589 -0.033328 0.98673 0.1589 -0.033328
0.98064 0.19297 -0.033324 0.98064 0.19297 -0.033324
0.99488 0.075862 -0.066765 0.99488 0.075862 -0.066765
0.99307 0.061793 -0.099983 0.99307 0.061793 -0.099983
0.99031 0.096377 -0.099955 0.99031 0.096377 -0.099955
0.99923 0.02064 -0.033396 0.99923 0.02064 -0.033396
0.99792 0.055231 -0.033393 0.99792 0.055231 -0.033393
0.99169 0.12425 -0.033376 0.99169 0.12425 -0.033376
0.9954 0.089833 -0.033381 0.9954 0.089833 -0.033381
0.97653 0.13723 -0.16602 0.97653 0.13723 -0.16602
0.98416 0.11697 -0.13324 0.98416 0.11697 -0.13324
0.98079 0.10257 -0.16595 0.98079 0.10257 -0.16595
0.9735 0.18595 -0.13311 0.9735 0.18595 -0.13311
0.97106 0.1718 -0.16593 0.97106 0.1718 -0.16593
0.96441 0.20608 -0.16567 0.96441 0.20608 -0.16567
0.96246 0.14271 -0.2309 0.96246 0.14271 -0.2309
0.95674 0.17723 -0.23075 0.95674 0.17723 -0.23075
0.96737 0.15735 -0.19858 0.96737 0.15735 -0.19858
0.86493 0.48444 -0.1312 0.86493 0.48444 -0.1312
0.9243 0.35823 -0.13165 0.9243 0.35823 -0.13165
0.92192 0.38172 -0.065988 0.92192 0.38172 -0.065988
0.8968 0.42236 -0.13175 0.8968 0.42236 -0.13175
0.89293 0.44536 -0.065817 0.89293 0.44536 -0.065817
0.89541 0.43413 -0.098843 0.89541 0.43413 -0.098843
0.90798 0.4138 -0.065943 0.90798 0.4138 -0.065943
0.91011 0.40237 -0.09895 0.91011 0.40237 -0.09895
0.94405 0.32815 -0.033041 0.94405 0.32815 -0.033041
0.95484 0.29526 -0.033048 0.95484 0.29526 -0.033048
0.93209 0.36072 -0.033021 0.93209 0.36072 -0.033021
0.91904 0.39278 -0.033014 0.91904 0.39278 -0.033014
0.93601 0.33778 -0.098929 0.93601 0.33778 -0.098929
0.92367 0.3702 -0.098882 0.92367 0.3702 -0.098882
0.93462 0.34946 -0.066055 0.93462 0.34946 -0.066055
0.86587 0.46027 -0.19601 0.86587 0.46027 -0.19601
0.88206 0.44168 -0.16402 0.88206 0.44168 -0.16402
0.86592 0.47264 -0.16371 0.86592 0.47264 -0.16371
0.8814 0.45368 -0.13155 0.8814 0.45368 -0.13155
0.86479 0.44735 -0.22809 0.86479 0.44735 -0.22809
0.88168 0.42907 -0.19633 0.88168 0.42907 -0.19633
0.88025 0.41596 -0.22834 0.88025 0.41596 -0.22834
0.91111 0.39053 -0.13178 0.91111 0.39053 -0.13178
0.91109 0.3781 -0.16417 0.91109 0.3781 -0.16417
0.89714 0.4101 -0.16418 0.89714 0.4101 -0.16418
0.85985 0.5063 -0.065758 0.85985 0.5063 -0.065758
0.87691 0.47612 -0.065827 0.87691 0.47612 -0.065827
0.87965 0.46529 -0.09859 0.87965 0.46529 -0.09859
0.86291 0.49567 -0.098538 0.86291 0.49567 -0.098538
0.90473 0.42471 -0.032936 0.90473 0.42471 -0.032936
0.88948 0.45579 -0.032928 0.88948 0.45579 -0.032928
0.85576 0.51632 -0.032899 0.85576 0.51632 -0.032899
0.87313 0.48638 -0.032906 0.87313 0.48638 -0.032906
1 0 0 1 0 0
0.85065 0 0.52573 0.85065 0 0.52573
0.95106 -0.16246 0.26287 0.95106 -0.16246 0.26287
0.95106 0.16246 0.26287 0.95106 0.16246 0.26287
0.96386 0 0.26641 0.96386 0 0.26641
0.91298 0.082324 0.39961 0.91298 0.082324 0.39961
0.91298 -0.082324 0.39961 0.91298 -0.082324 0.39961
0.91609 0 0.40097 0.91609 0 0.40097
0.94162 -0.041302 0.33414 0.94162 -0.041302 0.33414
0.94162 0.041302 0.33414 0.94162 0.041302 0.33414
0.94242 0 0.33443 0.94242 0 0.33443
0.92965 0.020669 0.36787 0.92965 0.020669 0.36787
0.92965 -0.020669 0.36787 0.92965 -0.020669 0.36787
0.88552 0 0.46461 0.88552 0 0.46461
0.86843 0.020667 0.49538 0.86843 0.020667 0.49538
0.86843 -0.020667 0.49538 0.86843 -0.020667 0.49538
0.89962 0.061863 0.43227 0.89962 0.061863 0.43227
0.90118 0.020667 0.43295 0.90118 0.020667 0.43295
0.91531 0.041197 0.40063 0.91531 0.041197 0.40063
0.89962 -0.061863 0.43227 0.89962 -0.061863 0.43227
0.91531 -0.041197 0.40063 0.91531 -0.041197 0.40063
0.90118 -0.020667 0.43295 0.90118 -0.020667 0.43295
0.95193 -0.061453 0.30008 0.95193 -0.061453 0.30008
0.96306 -0.040785 0.26618 0.96306 -0.040785 0.26618
0.95355 -0.020669 0.30053 0.95355 -0.020669 0.30053
0.95665 -0.12208 0.26441 0.95665 -0.12208 0.26441
0.9487 -0.10224 0.29919 0.9487 -0.10224 0.29919
0.94388 -0.14275 0.29785 0.94388 -0.14275 0.29785
0.92809 -0.061865 0.36719 0.92809 -0.061865 0.36719
0.92483 -0.10265 0.36628 0.92483 -0.10265 0.36628
0.93916 -0.08212 0.33352 0.93916 -0.08212 0.33352
0.95193 0.061453 0.30008 0.95193 0.061453 0.30008
0.95355 0.020669 0.30053 0.95355 0.020669 0.30053
0.96306 0.040785 0.26618 0.96306 0.040785 0.26618
0.92809 0.061865 0.36719 0.92809 0.061865 0.36719
0.93916 0.08212 0.33352 0.93916 0.08212 0.33352
0.92483 0.10265 0.36628 0.92483 0.10265 0.36628
0.95665 0.12208 0.26441 0.95665 0.12208 0.26441
0.94388 0.14275 0.29785 0.94388 0.14275 0.29785
0.9487 0.10224 0.29919 0.9487 0.10224 0.29919
0.97969 0 0.20054 0.97969 0 0.20054
0.97212 0.020642 0.23357 0.97212 0.020642 0.23357
0.97212 -0.020642 0.23357 0.97212 -0.020642 0.23357
0.98404 0.061795 0.16685 0.98404 0.061795 0.16685
0.98573 0.020642 0.16708 0.98573 0.020642 0.16708
0.99021 0.041156 0.13341 0.99021 0.041156 0.13341
0.98404 -0.061795 0.16685 0.98404 -0.061795 0.16685
0.99021 -0.041156 0.13341 0.99021 -0.041156 0.13341
0.98573 -0.020642 0.16708 0.98573 -0.020642 0.16708
0.99105 0 0.13352 0.99105 0 0.13352
0.99692 -0.041248 0.066741 0.99692 -0.041248 0.066741
0.99692 0.041248 0.066741 0.99692 0.041248 0.066741
0.99777 0 0.066798 0.99777 0 0.066798
0.99475 0.02064 0.10021 0.99475 0.02064 0.10021
0.99475 -0.02064 0.10021 0.99475 -0.02064 0.10021
0.97237 -0.12273 0.19858 0.97237 -0.12273 0.19858
0.97885 -0.041251 0.20037 0.97885 -0.041251 0.20037
0.96065 -0.081501 0.26552 0.96065 -0.081501 0.26552
0.97051 -0.061424 0.23312 0.97051 -0.061424 0.23312
0.96728 -0.1022 0.23223 0.96728 -0.1022 0.23223
0.97643 -0.082059 0.19964 0.97643 -0.082059 0.19964
0.97237 0.12273 0.19858 0.97237 0.12273 0.19858
0.96065 0.081501 0.26552 0.96065 0.081501 0.26552
0.97885 0.041251 0.20037 0.97885 0.041251 0.20037
0.97051 0.061424 0.23312 0.97051 0.061424 0.23312
0.97643 0.082059 0.19964 0.97643 0.082059 0.19964
0.96728 0.1022 0.23223 0.96728 0.1022 0.23223
0.88739 0.17976 0.42453 0.88739 0.17976 0.42453
0.89863 0.2 0.39047 0.89863 0.2 0.39047
0.88052 0.21864 0.42058 0.88052 0.21864 0.42058
0.90963 0.12176 0.39718 0.90963 0.12176 0.39718
0.89285 0.1405 0.42787 0.89285 0.1405 0.42787
0.89687 0.10112 0.43058 0.89687 0.10112 0.43058
0.85508 0.17748 0.48717 0.85508 0.17748 0.48717
0.86044 0.1382 0.49046 0.86044 0.1382 0.49046
0.87463 0.15912 0.45793 0.87463 0.15912 0.45793
0.87934 0.11975 0.46088 0.87934 0.11975 0.46088
0.84803 0.078459 0.52411 0.84803 0.078459 0.52411
0.88476 0.041299 0.46421 0.88476 0.041299 0.46421
0.86708 0.059927 0.49455 0.86708 0.059927 0.49455
0.88274 0.08059 0.46291 0.88274 0.08059 0.46291
0.86441 0.09919 0.49291 0.86441 0.09919 0.49291
0.82715 0.23345 0.51121 0.82715 0.23345 0.51121
0.86853 0.19823 0.45426 0.86853 0.19823 0.45426
0.85264 0.27469 0.44446 0.85264 0.27469 0.44446
0.86125 0.23664 0.44971 0.86125 0.23664 0.44971
0.84061 0.25429 0.47824 0.84061 0.25429 0.47824
0.8485 0.216 0.48311 0.8485 0.216 0.48311
0.93513 0.1228 0.33234 0.93513 0.1228 0.33234
0.92388 0.20119 0.32553 0.92388 0.20119 0.32553
0.90484 0.16101 0.39414 0.90484 0.16101 0.39414
0.91512 0.18125 0.36013 0.91512 0.18125 0.36013
0.9207 0.14201 0.36352 0.9207 0.14201 0.36352
0.93024 0.16212 0.3292 0.93024 0.16212 0.3292
0.88739 -0.17976 0.42453 0.88739 -0.17976 0.42453
0.88052 -0.21864 0.42058 0.88052 -0.21864 0.42058
0.89863 -0.2 0.39047 0.89863 -0.2 0.39047
0.85508 -0.17748 0.48717 0.85508 -0.17748 0.48717
0.87463 -0.15912 0.45793 0.87463 -0.15912 0.45793
0.86044 -0.1382 0.49046 0.86044 -0.1382 0.49046
0.90963 -0.12176 0.39718 0.90963 -0.12176 0.39718
0.89687 -0.10112 0.43058 0.89687 -0.10112 0.43058
0.89285 -0.1405 0.42787 0.89285 -0.1405 0.42787
0.87934 -0.11975 0.46088 0.87934 -0.11975 0.46088
0.88476 -0.041299 0.46421 0.88476 -0.041299 0.46421
0.84803 -0.078459 0.52411 0.84803 -0.078459 0.52411
0.86708 -0.059927 0.49455 0.86708 -0.059927 0.49455
0.86441 -0.09919 0.49291 0.86441 -0.09919 0.49291
0.88274 -0.08059 0.46291 0.88274 -0.08059 0.46291
0.93513 -0.1228 0.33234 0.93513 -0.1228 0.33234
0.90484 -0.16101 0.39414 0.90484 -0.16101 0.39414
0.92388 -0.20119 0.32553 0.92388 -0.20119 0.32553
0.91512 -0.18125 0.36013 0.91512 -0.18125 0.36013
0.93024 -0.16212 0.3292 0.93024 -0.16212 0.3292
0.9207 -0.14201 0.36352 0.9207 -0.14201 0.36352
0.82715 -0.23345 0.51121 0.82715 -0.23345 0.51121
0.85264 -0.27469 0.44446 0.85264 -0.27469 0.44446
0.86853 -0.19823 0.45426 0.86853 -0.19823 0.45426
0.86125 -0.23664 0.44971 0.86125 -0.23664 0.44971
0.8485 -0.216 0.48311 0.8485 -0.216 0.48311
0.84061 -0.25429 0.47824 0.84061 -0.25429 0.47824
0.69378 0.16062 0.70205 0.69378 0.16062 0.70205
0.74411 0 0.66805 0.74411 0 0.66805
0.72367 0.020352 0.68984 0.72367 0.020352 0.68984
0.72367 -0.020352 0.68984 0.72367 -0.020352 0.68984
0.76235 0.060949 0.64429 0.76235 0.060949 0.64429
0.76364 0.020352 0.64532 0.76364 0.020352 0.64532
0.78214 0.040604 0.62178 0.78214 0.040604 0.62178
0.76235 -0.060949 0.64429 0.76235 -0.060949 0.64429
0.78214 -0.040604 0.62178 0.78214 -0.040604 0.62178
0.76364 -0.020352 0.64532 0.76364 -0.020352 0.64532
0.78279 0 0.62229 0.78279 0 0.62229
0.81752 -0.040675 0.57446 0.81752 -0.040675 0.57446
0.81752 0.040675 0.57446 0.81752 0.040675 0.57446
0.8182 0 0.57493 0.8182 0 0.57493
0.80067 0.020351 0.59876 0.80067 0.020351 0.59876
0.80067 -0.020351 0.59876 0.80067 -0.020351 0.59876
0.73889 -0.12119 0.66284 0.73889 -0.12119 0.66284
0.7435 -0.040677 0.6675 0.7435 -0.040677 0.6675
0.70062 -0.080573 0.70897 0.70062 -0.080573 0.70897
0.72252 -0.060664 0.68868 0.72252 -0.060664 0.68868
0.72023 -0.10095 0.68636 0.72023 -0.10095 0.68636
0.7418 -0.081001 0.66572 0.7418 -0.081001 0.66572
0.73889 0.12119 0.66284 0.73889 0.12119 0.66284
0.70062 0.080573 0.70897 0.70062 0.080573 0.70897
0.7435 0.040677 0.6675 0.7435 0.040677 0.6675
0.72252 0.060664 0.68868 0.72252 0.060664 0.68868
0.7418 0.081001 0.66572 0.7418 0.081001 0.66572
0.72023 0.10095 0.68636 0.72023 0.10095 0.68636
0.70291 0 0.71128 0.70291 0 0.71128
0.61564 0.081086 0.78384 0.61564 0.081086 0.78384
0.61768 0 0.78643 0.61768 0 0.78643
0.66088 -0.040642 0.74939 0.66088 -0.040642 0.74939
0.66088 0.040642 0.74939 0.66088 0.040642 0.74939
0.66143 0 0.75001 0.66143 0 0.75001
0.63967 0.020333 0.76838 0.63967 0.020333 0.76838
0.63967 -0.020333 0.76838 0.63967 -0.020333 0.76838
0.57206 0.04064 0.81921 0.57206 0.04064 0.81921
0.57253 0 0.81988 0.57253 0 0.81988
0.54922 0.020332 0.83543 0.54922 0.020332 0.83543
0.5942 0.0609 0.80201 0.5942 0.0609 0.80201
0.59522 0.020332 0.8033 0.59522 0.020332 0.8033
0.61717 0.040577 0.78579 0.61717 0.040577 0.78579
0.61717 -0.040577 0.78579 0.61717 -0.040577 0.78579
0.59522 -0.020332 0.8033 0.59522 -0.020332 0.8033
0.68116 -0.060644 0.72962 0.68116 -0.060644 0.72962
0.70234 -0.040319 0.7107 0.70234 -0.040319 0.7107
0.68231 -0.020333 0.73078 0.68231 -0.020333 0.73078
0.69777 -0.1207 0.70608 0.69777 -0.1207 0.70608
0.67887 -0.10092 0.72729 0.67887 -0.10092 0.72729
0.63865 -0.060901 0.76708 0.63865 -0.060901 0.76708
0.65912 -0.080959 0.74767 0.65912 -0.080959 0.74767
0.65628 0.12114 0.74473 0.65628 0.12114 0.74473
0.68116 0.060644 0.72962 0.68116 0.060644 0.72962
0.68231 0.020333 0.73078 0.68231 0.020333 0.73078
0.70234 0.040319 0.7107 0.70234 0.040319 0.7107
0.63865 0.060901 0.76708 0.63865 0.060901 0.76708
0.65912 0.080959 0.74767 0.65912 0.080959 0.74767
0.63634 0.10118 0.76474 0.63634 0.10118 0.76474
0.69777 0.1207 0.70608 0.69777 0.1207 0.70608
0.67544 0.14097 0.72382 0.67544 0.14097 0.72382
0.67887 0.10092 0.72729 0.67887 0.10092 0.72729
0.75865 0.23709 0.60683 0.75865 0.23709 0.60683
0.7802 0.081142 0.62024 0.7802 0.081142 0.62024
0.84018 0.15643 0.51926 0.84018 0.15643 0.51926
0.81217 0.11908 0.57114 0.81217 0.11908 0.57114
0.8015 0.19727 0.56451 0.8015 0.19727 0.56451
0.77184 0.15961 0.61546 0.77184 0.15961 0.61546
0.78715 0.17855 0.59035 0.78715 0.17855 0.59035
0.79252 0.13944 0.59369 0.79252 0.13944 0.59369
0.80747 0.1583 0.56827 0.80747 0.1583 0.56827
0.83329 0.059604 0.54962 0.83329 0.059604 0.54962
0.83462 0.020351 0.55045 0.83462 0.020351 0.55045
0.84999 0.03926 0.52533 0.84999 0.03926 0.52533
0.79938 0.060948 0.59773 0.79938 0.060948 0.59773
0.81548 0.079939 0.57324 0.81548 0.079939 0.57324
0.79667 0.10017 0.59605 0.79667 0.10017 0.59605
0.84475 0.11754 0.52209 0.84475 0.11754 0.52209
0.82668 0.13784 0.54553 0.82668 0.13784 0.54553
0.83063 0.098832 0.54798 0.83063 0.098832 0.54798
0.78571 0.27371 0.55474 0.78571 0.27371 0.55474
0.79422 0.23567 0.56006 0.79422 0.23567 0.56006
0.77265 0.25555 0.58113 0.77265 0.25555 0.58113
0.78059 0.21732 0.58605 0.78059 0.21732 0.58605
0.79784 0.29154 0.52769 0.79784 0.29154 0.52769
0.80696 0.25374 0.53332 0.80696 0.25374 0.53332
0.81871 0.27144 0.50599 0.81871 0.27144 0.50599
0.82138 0.17697 0.54224 0.82138 0.17697 0.54224
0.83431 0.19509 0.51563 0.83431 0.19509 0.51563
0.81482 0.21549 0.53818 0.81482 0.21549 0.53818
0.72796 0.19933 0.65601 0.72796 0.19933 0.65601
0.75038 0.17959 0.63614 0.75038 0.17959 0.63614
0.76584 0.1985 0.61162 0.76584 0.1985 0.61162
0.74375 0.21834 0.63179 0.74375 0.21834 0.63179
0.77663 0.12047 0.61833 0.77663 0.12047 0.61833
0.75582 0.14049 0.63953 0.75582 0.14049 0.63953
0.76003 0.10123 0.64195 0.76003 0.10123 0.64195
0.71129 0.18008 0.67943 0.71129 0.18008 0.67943
0.71679 0.141 0.68288 0.71679 0.141 0.68288
0.734 0.16039 0.65994 0.734 0.16039 0.65994
0.84018 -0.15643 0.51926 0.84018 -0.15643 0.51926
0.7802 -0.081142 0.62024 0.7802 -0.081142 0.62024
0.81217 -0.11908 0.57114 0.81217 -0.11908 0.57114
0.77184 -0.15961 0.61546 0.77184 -0.15961 0.61546
0.8015 -0.19727 0.56451 0.8015 -0.19727 0.56451
0.78715 -0.17855 0.59035 0.78715 -0.17855 0.59035
0.80747 -0.1583 0.56827 0.80747 -0.1583 0.56827
0.79252 -0.13944 0.59369 0.79252 -0.13944 0.59369
0.83329 -0.059604 0.54962 0.83329 -0.059604 0.54962
0.84999 -0.03926 0.52533 0.84999 -0.03926 0.52533
0.83462 -0.020351 0.55045 0.83462 -0.020351 0.55045
0.84475 -0.11754 0.52209 0.84475 -0.11754 0.52209
0.83063 -0.098832 0.54798 0.83063 -0.098832 0.54798
0.82668 -0.13784 0.54553 0.82668 -0.13784 0.54553
0.79938 -0.060948 0.59773 0.79938 -0.060948 0.59773
0.79667 -0.10017 0.59605 0.79667 -0.10017 0.59605
0.81548 -0.079939 0.57324 0.81548 -0.079939 0.57324
0.75038 -0.17959 0.63614 0.75038 -0.17959 0.63614
0.76584 -0.1985 0.61162 0.76584 -0.1985 0.61162
0.734 -0.16039 0.65994 0.734 -0.16039 0.65994
0.71679 -0.141 0.68288 0.71679 -0.141 0.68288
0.77663 -0.12047 0.61833 0.77663 -0.12047 0.61833
0.76003 -0.10123 0.64195 0.76003 -0.10123 0.64195
0.75582 -0.14049 0.63953 0.75582 -0.14049 0.63953
0.79422 -0.23567 0.56006 0.79422 -0.23567 0.56006
0.78059 -0.21732 0.58605 0.78059 -0.21732 0.58605
0.82138 -0.17697 0.54224 0.82138 -0.17697 0.54224
0.81482 -0.21549 0.53818 0.81482 -0.21549 0.53818
0.83431 -0.19509 0.51563 0.83431 -0.19509 0.51563
0.81871 -0.27144 0.50599 0.81871 -0.27144 0.50599
0.80696 -0.25374 0.53332 0.80696 -0.25374 0.53332
0.96194 -0.27327 0 0.96194 -0.27327 0
0.94675 -0.27592 0.16594 0.94675 -0.27592 0.16594
0.95773 -0.25519 0.13277 0.95773 -0.25519 0.13277
0.9562 -0.24103 0.16608 0.9562 -0.24103 0.16608
0.93667 -0.32429 0.1322 0.93667 -0.32429 0.1322
0.93603 -0.31052 0.16561 0.93603 -0.31052 0.16561
0.9241 -0.34464 0.16513 0.9241 -0.34464 0.16513
0.93111 -0.28164 0.23178 0.93111 -0.28164 0.23178
0.92006 -0.31614 0.23139 0.92006 -0.31614 0.23139
0.93417 -0.29627 0.19887 0.93417 -0.29627 0.19887
0.92268 -0.33061 0.19839 0.92268 -0.33061 0.19839
0.89174 -0.36852 0.26266 0.89174 -0.36852 0.26266
0.8964 -0.39735 0.19641 0.8964 -0.39735 0.19641
0.89466 -0.38319 0.22969 0.89466 -0.38319 0.22969
0.91013 -0.36421 0.19753 0.91013 -0.36421 0.19753
0.90795 -0.34985 0.23071 0.90795 -0.34985 0.23071
0.93605 -0.23245 0.26415 0.93605 -0.23245 0.26415
0.94443 -0.26155 0.19909 0.94443 -0.26155 0.19909
0.96119 -0.19178 0.19834 0.96119 -0.19178 0.19834
0.95342 -0.22681 0.19884 0.95342 -0.22681 0.19884
0.9494 -0.21229 0.23144 0.9494 -0.21229 0.23144
0.94085 -0.24716 0.23177 0.94085 -0.24716 0.23177
0.9462 -0.31678 0.066042 0.9462 -0.31678 0.066042
0.96664 -0.24733 0.066567 0.96664 -0.24733 0.066567
0.94782 -0.28993 0.13257 0.94782 -0.28993 0.13257
0.95801 -0.26885 0.09965 0.95801 -0.26885 0.09965
0.94762 -0.30355 0.09937 0.94762 -0.30355 0.09937
0.95705 -0.28224 0.066348 0.95705 -0.28224 0.066348
0.96639 -0.22012 0.13279 0.96639 -0.22012 0.13279
0.99044 -0.13795 0 0.99044 -0.13795 0
0.98769 -0.082243 0.13307 0.98769 -0.082243 0.13307
0.99165 -0.11038 0.066709 0.99165 -0.11038 0.066709
0.97943 -0.15155 0.13326 0.97943 -0.15155 0.13326
0.98148 -0.1796 0.066604 0.98148 -0.1796 0.066604
0.9811 -0.16568 0.099996 0.9811 -0.16568 0.099996
0.98717 -0.14508 0.066698 0.98717 -0.14508 0.066698
0.98631 -0.13107 0.10006 0.98631 -0.13107 0.10006
0.99761 -0.069142 0 0.99761 -0.069142 0
0.99792 -0.055231 0.033393 0.99792 -0.055231 0.033393
0.9994 -0.034591 0 0.9994 -0.034591 0
0.99923 -0.02064 0.033396 0.99923 -0.02064 0.033396
0.99462 -0.10361 0 0.99462 -0.10361 0
0.9954 -0.089833 0.033381 0.9954 -0.089833 0.033381
0.99169 -0.12425 0.033376 0.99169 -0.12425 0.033376
0.99307 -0.061793 0.099983 0.99307 -0.061793 0.099983
0.99031 -0.096377 0.099955 0.99031 -0.096377 0.099955
0.99488 -0.075862 0.066765 0.99488 -0.075862 0.066765
0.97106 -0.1718 0.16593 0.97106 -0.1718 0.16593
0.96441 -0.20608 0.16567 0.96441 -0.20608 0.16567
0.9735 -0.18595 0.13311 0.9735 -0.18595 0.13311
0.95674 -0.17723 0.23075 0.95674 -0.17723 0.23075
0.96737 -0.15735 0.19858 0.96737 -0.15735 0.19858
0.96246 -0.14271 0.2309 0.96246 -0.14271 0.2309
0.98416 -0.11697 0.13324 0.98416 -0.11697 0.13324
